//X;Y;Z;Scalar field;C2C absolute distances;Illuminance (PCV)
-2.511199951;-8.806400299;8.102999687;1168.000000;0.044724;0.970339
-2.109299898;-8.571900368;8.902199745;1168.000000;0.288697;0.957627
-1.922199965;-8.704400063;9.352800369;1168.000000;0.678225;0.974576
-3.203799963;-9.350399971;8.568799973;1168.000000;0.553724;0.983051
-4.249700069;-8.232500076;8.962699890;1168.000000;0.854867;0.995763
-2.839799881;-9.111399651;9.411299706;1168.000000;0.727425;0.970339
-2.202199936;-8.802200317;9.686900139;1168.000000;0.803598;0.957627
-2.400599957;-8.311699867;9.088100433;1168.000000;0.468609;0.961864
-2.218100071;-9.148799896;9.503999710;1168.000000;0.549088;0.974576
-2.435899973;-8.756299973;8.611599922;1168.000000;0.018288;0.966102
-1.835600019;-8.488400459;8.074399948;1168.000000;0.446240;0.957627
-1.811400056;-8.906800270;9.862899780;1168.000000;1.039293;0.961864
-1.855999947;-8.647999763;9.759799957;1168.000000;1.024306;0.957627
-2.129899979;-8.050800323;8.053500175;1168.000000;0.313961;0.966102
-2.406300068;-7.471499920;8.259400368;1168.000000;0.895647;0.978814
-1.763100028;-8.560799599;8.040900230;1168.000000;0.515597;0.966102
-2.368099928;-8.438599586;9.632800102;1168.000000;0.860179;0.978814
-3.830300093;-8.350299835;8.926199913;1168.000000;0.658420;0.987288
-2.797600031;-8.176600456;9.160499573;1168.000000;0.566416;0.966102
-3.078099966;-8.692899704;9.639300346;1168.000000;1.058051;0.987288
-3.226900101;-9.464400291;8.610099792;1168.000000;0.586568;0.983051
-1.896900058;-8.936900139;9.918700218;1168.000000;1.049126;0.974576
-2.955199957;-8.488300323;8.977000237;1168.000000;0.456134;0.966102
-1.665599942;-8.282500267;8.281399727;1168.000000;0.688780;0.970339
-2.518199921;-8.619199753;9.743200302;1168.000000;0.948574;0.974576
-1.720999956;-8.065999985;8.293499947;1168.000000;0.714973;0.961864
-2.012500048;-7.911200047;8.376199722;1168.000000;0.662385;0.978814
-2.006000042;-8.748100281;9.723500252;1168.000000;0.896586;0.961864
-2.476399899;-9.038999557;9.225000381;1168.000000;0.351237;0.978814
-1.770300031;-8.296099663;8.065999985;1168.000000;0.500717;0.961864
-1.954800010;-8.355099678;9.379199982;1168.000000;0.774038;0.978814
-2.652699947;-9.078399658;9.382499695;1168.000000;0.573948;0.970339
-2.207000017;-8.357500076;9.144800186;1168.000000;0.494611;0.966102
-4.126500130;-8.284399986;8.284700394;1168.000000;0.528394;0.978814
-3.092999935;-9.141500473;9.112000465;1168.000000;0.712109;0.966102
-3.569799900;-9.013099670;9.118599892;1168.000000;0.485848;0.978814
-3.051000118;-9.209899902;9.542099953;1168.000000;0.976659;0.991525
-3.184000015;-9.708999634;8.339300156;1168.000000;0.845748;0.974576
-2.921999931;-7.520699978;8.532199860;1168.000000;0.700369;0.983051
-2.732300043;-8.589400291;9.582599640;1168.000000;0.858235;0.987288
-2.087100029;-8.685099602;9.943099976;1168.000000;1.097676;0.987288
-1.689599991;-8.950799942;9.223199844;1168.000000;0.662804;0.974576
-3.077899933;-8.166799545;9.354599953;1168.000000;0.767281;0.978814
-3.854300022;-7.960700035;8.823399544;1168.000000;0.885105;0.966102
-2.613100052;-8.243399620;9.622200012;1168.000000;0.958524;0.983051
-2.207200050;-8.504599571;9.190500259;1168.000000;0.449371;0.970339
-2.929500103;-8.294300079;8.997900009;1168.000000;0.398281;0.944915
-3.462800026;-8.438400269;8.774999619;1168.000000;0.616507;0.987288
-2.631900072;-8.596300125;10.237899780;1168.000000;1.434930;1.000000
-2.767899990;-6.982399940;8.321200371;1168.000000;1.091908;0.983051
-2.503299952;-8.172400475;9.591899872;1168.000000;0.947624;0.970339
-2.786299944;-9.380499840;9.574799538;1168.000000;0.839603;0.995763
-1.812899947;-9.036499977;8.860199928;1168.000000;0.434244;0.944915
-2.625400066;-8.948699951;9.614700317;1168.000000;0.769998;0.978814
-2.681099892;-8.820799828;9.117699623;1168.000000;0.402755;0.983051
-1.968400002;-7.926799774;8.206299782;1168.000000;0.561882;0.974576
-2.699100018;-8.401000023;9.028599739;1168.000000;0.481914;0.927966
-2.377599955;-7.869299889;8.157600403;1168.000000;0.497429;0.970339
-2.946300030;-8.320899963;9.126799583;1168.000000;0.530618;0.936441
-2.332600117;-8.640600204;9.713800430;1168.000000;0.904604;0.970339
-2.778300047;-8.597000122;9.445699692;1168.000000;0.759283;0.987288
-2.450099945;-9.498200417;9.364700317;1168.000000;0.572638;0.970339
-2.108000040;-8.416199684;9.509300232;1168.000000;0.791713;0.974576
-1.644600034;-8.268799782;8.058899879;1168.000000;0.621574;0.974576
-2.831700087;-7.746600151;8.557700157;1168.000000;0.478793;0.978814
-1.719699979;-8.539199829;8.157299995;1168.000000;0.592198;0.983051
-2.598000050;-9.131500244;9.041899681;1168.000000;0.323444;0.978814
-1.655900002;-8.550600052;8.048899651;1168.000000;0.613007;0.957627
-2.151799917;-8.243499756;8.129500389;1168.000000;0.259864;0.940678
-2.757200003;-9.008199692;9.694100380;1168.000000;0.891973;0.974576
-2.248399973;-9.071399689;9.269000053;1168.000000;0.318154;0.961864
-2.392999887;-8.953399658;9.813500404;1168.000000;0.883358;0.974576
-2.024899960;-7.834000111;8.101699829;1168.000000;0.550321;0.944915
-2.551300049;-7.577499866;8.429900169;1168.000000;0.743201;0.949153
-2.775899887;-9.456800461;9.376099586;1168.000000;0.728678;0.974576
-1.917700052;-8.545700073;8.066200256;1168.000000;0.381469;0.961864
-2.866300106;-7.879600048;9.364600182;1168.000000;0.830920;0.991525
-4.035999775;-8.353099823;8.803400040;1168.000000;0.588272;0.983051
-2.332400084;-8.679800034;9.937800407;1168.000000;1.081771;0.987288
-1.987499952;-7.680200100;8.329299927;1168.000000;0.794604;0.966102
-2.126100063;-7.717000008;8.205400467;1168.000000;0.659860;0.978814
-2.178999901;-8.751099586;9.925999641;1168.000000;1.044877;0.983051
-2.113500118;-8.310199738;8.216400146;1168.000000;0.331254;0.957627
-2.139199972;-8.807700157;8.977199554;1168.000000;0.301386;0.974576
-2.359299898;-8.460700035;9.493800163;1168.000000;0.720938;0.961864
-2.659399986;-8.268099785;9.720000267;1168.000000;1.044091;0.966102
-3.499599934;-8.903599739;9.110699654;1168.000000;0.533870;0.974576
-3.045599937;-8.313799858;9.148099899;1168.000000;0.565198;0.974576
-2.391700029;-8.165399551;9.578599930;1168.000000;0.930086;0.970339
-2.987499952;-8.379699707;9.317500114;1168.000000;0.732189;0.974576
-1.849200010;-8.364500046;8.081500053;1168.000000;0.426122;0.966102
-3.049799919;-7.580500126;9.075900078;1168.000000;0.803539;0.991525
-2.312999964;-7.503900051;8.318599701;1168.000000;0.884972;0.978814
-2.533699989;-8.590700150;9.905699730;1168.000000;1.113403;0.974576
-2.704900026;-7.846199989;8.101400375;1168.000000;0.599295;0.974576
-2.964999914;-8.081999779;9.358699799;1168.000000;0.765549;0.966102
-1.928099990;-8.449000359;8.101400375;1168.000000;0.369647;0.974576
-2.629100084;-7.509699821;8.123000145;1168.000000;0.734578;0.949153
-3.696000099;-9.000300407;8.809599876;1168.000000;0.182223;0.978814
-1.700600028;-8.176600456;8.305600166;1168.000000;0.697000;0.987288
-3.570699930;-8.430999756;8.816599846;1168.000000;0.594808;0.987288
-2.768899918;-8.471899986;9.977600098;1168.000000;1.252811;0.983051
-1.643700004;-8.744899750;9.855500221;1168.000000;1.160924;0.987288
-2.961699963;-7.866499901;9.465999603;1168.000000;0.929387;0.978814
-2.869400024;-7.312699795;8.783900261;1168.000000;0.922952;0.970339
-2.568599939;-8.490900040;10.002799988;1168.000000;1.226514;0.987288
-2.269599915;-7.271200180;8.510299683;1168.000000;1.135637;0.974576
-2.764699936;-8.595999718;9.988800049;1168.000000;1.246478;0.983051
-2.134799957;-8.468799591;9.750800133;1168.000000;0.992294;0.978814
-2.463399887;-8.766400337;8.224800110;1168.000000;0.090882;0.978814
-3.221800089;-9.065600395;9.103300095;1168.000000;0.651000;0.961864
-2.293499947;-9.097900391;8.798199654;1168.000000;0.008598;0.974576
-1.808500051;-8.601900101;9.900899887;1168.000000;1.176361;0.987288
-3.097300053;-9.067799568;9.252499580;1168.000000;0.775548;0.978814
-2.988600016;-7.738900185;9.149399757;1168.000000;0.727865;0.983051
-1.478899956;-8.731499672;9.100999832;1168.000000;0.897627;0.983051
-2.722300053;-9.385100365;9.122300148;1168.000000;0.533864;0.970339
-3.415899992;-8.884799957;9.179699898;1168.000000;0.633150;0.991525
-3.049799919;-8.968600273;9.067799568;1168.000000;0.606190;0.966102
-2.825700045;-9.054300308;9.625800133;1168.000000;0.872216;1.000000
-3.019099951;-8.310799599;9.898099899;1168.000000;1.298537;0.991525
-3.125799894;-7.462100029;8.565299988;1168.000000;0.787202;0.987288
-2.172399998;-8.299200058;9.777000427;1168.000000;1.059259;0.966102
-2.267199993;-8.727100372;10.147600174;1168.000000;1.257351;0.978814
-2.730799913;-7.575600147;8.114199638;1168.000000;0.708128;0.970339
-1.603800058;-8.808500290;8.473099709;1168.000000;0.563265;0.987288
-1.834800005;-8.322600365;10.096099854;1168.000000;1.436779;0.995763
-2.024100065;-8.824099541;9.611700058;1168.000000;0.763675;0.961864
-2.953200102;-7.843200207;9.265299797;1168.000000;0.758636;0.991525
-2.451200008;-7.673200130;8.560099602;1168.000000;0.700260;0.991525
-2.223200083;-9.080400467;9.688400269;1168.000000;0.734199;0.970339
-2.457200050;-8.651200294;10.096699715;1168.000000;1.251068;0.987288
-2.412899971;-8.534199715;9.854599953;1168.000000;1.057683;0.949153
-3.024100065;-9.260999680;8.883099556;1168.000000;0.581752;0.987288
-2.584500074;-9.208499908;9.542599678;1168.000000;0.667620;0.987288
-1.985000014;-8.403400421;9.464799881;1168.000000;0.806659;0.957627
-2.152899981;-8.426600456;9.869700432;1168.000000;1.111328;0.966102
-1.719300032;-8.452699661;9.107799530;1168.000000;0.742726;0.961864
-2.860699892;-8.076199532;9.269499779;1168.000000;0.679242;0.953390
-3.870699883;-8.260999680;8.966099739;1168.000000;0.744013;0.983051
-2.292299986;-8.504500389;9.304200172;1168.000000;0.531802;0.949153
-2.159100056;-7.499599934;8.332900047;1168.000000;0.902632;0.987288
-1.546800017;-8.082099915;8.337699890;1168.000000;0.865217;0.991525
-1.633200049;-8.056300163;8.166999817;1168.000000;0.729414;0.983051
-1.677600026;-8.041199684;8.392000198;1168.000000;0.811257;0.995763
-2.528599977;-6.828599930;8.129099846;1168.000000;1.072237;0.974576
-2.344899893;-7.003099918;8.168299675;1168.000000;1.049934;0.987288
-1.809000015;-7.703599930;8.075799942;1168.000000;0.760537;0.970339
-2.616800070;-7.473700047;7.963600159;1168.000000;0.589360;0.944915
-2.685600042;-9.452899933;7.398600101;1168.000000;0.546517;0.983051
-3.481499910;-7.899700165;6.845799923;1168.000000;0.273439;0.978814
-2.395400047;-7.276199818;7.197899818;1168.000000;0.529338;0.966102
-2.414400101;-7.498300076;7.936500072;1168.000000;0.648766;0.936441
-2.881799936;-7.879300117;7.816699982;1168.000000;0.397114;0.970339
-2.223599911;-7.753699780;6.943099976;1168.000000;0.396386;0.983051
-3.480499983;-7.845399857;7.031499863;1168.000000;0.293478;0.966102
-1.691200018;-8.342100143;7.842999935;1168.000000;0.548907;0.966102
-2.475399971;-7.638599873;6.935400009;1168.000000;0.301226;0.978814
-3.549299955;-8.227800369;7.432700157;1168.000000;0.645789;0.953390
-3.401900053;-8.171699524;7.797100067;1168.000000;0.744300;0.991525
-2.676800013;-7.635499954;7.944600105;1168.000000;0.549537;0.940678
-2.087300062;-7.835599899;7.148700237;1168.000000;0.513157;0.974576
-2.390100002;-9.013099670;7.142199993;1168.000000;0.171770;0.978814
-3.183900118;-8.696399689;7.567599773;1168.000000;0.654267;0.983051
-2.606800079;-7.082499981;7.742700100;1168.000000;0.625124;0.953390
-2.919399977;-8.060199738;7.760399818;1168.000000;0.311110;0.983051
-2.376800060;-8.933799744;7.244200230;1168.000000;0.123529;0.978814
-2.980700016;-8.123200417;7.621300220;1168.000000;0.285965;0.961864
-2.722399950;-9.575599670;7.521200180;1168.000000;0.666265;0.978814
-2.818099976;-8.168299675;7.769100189;1168.000000;0.268187;0.974576
-2.475800037;-7.436500072;7.993299961;1168.000000;0.675928;0.953390
-3.056799889;-7.996300220;6.513400078;1168.000000;0.195734;0.966102
-2.677200079;-8.359199524;6.837200165;1168.000000;0.052630;0.961864
-3.573199987;-8.202799797;7.597300053;1168.000000;0.758565;0.970339
-2.467700005;-7.128699780;7.784999847;1168.000000;0.667020;0.961864
-2.526900053;-7.559400082;7.785099983;1168.000000;0.455526;0.944915
-2.588900089;-8.279100418;6.744699955;1168.000000;0.197222;0.978814
-2.496599913;-8.949700356;7.394599915;1168.000000;0.089145;0.966102
-2.663700104;-8.430100441;7.743500233;1168.000000;0.336794;0.953390
-2.125499964;-8.287799835;7.400700092;1168.000000;0.030812;0.978814
-1.909999967;-8.643600464;7.826900005;1168.000000;0.280016;0.970339
-3.644599915;-8.247400284;7.245900154;1168.000000;0.508675;0.966102
-2.711800098;-8.247099876;6.840600014;1168.000000;0.128709;0.974576
-1.511399984;-8.435400009;7.859700203;1168.000000;0.713075;0.970339
-2.384999990;-7.542600155;6.915400028;1168.000000;0.288830;0.966102
-2.233400106;-9.122599602;7.139100075;1168.000000;0.165059;0.983051
-2.349699974;-9.150400162;7.187900066;1168.000000;0.269194;0.978814
-3.441499949;-7.484600067;7.343299866;1168.000000;0.515982;0.970339
-2.576299906;-7.288400173;7.664500237;1168.000000;0.439715;0.970339
-3.302799940;-7.489600182;7.383900166;1168.000000;0.453768;0.991525
-3.063100100;-8.022100449;7.670899868;1168.000000;0.386816;0.961864
-2.621799946;-6.909800053;7.462999821;1168.000000;0.691820;0.966102
-2.602099895;-6.978499889;7.718599796;1168.000000;0.700948;0.953390
-3.451499939;-8.293199539;7.604899883;1168.000000;0.748250;0.978814
-3.286799908;-9.668999672;7.886300087;1168.000000;0.866898;0.978814
-3.759999990;-8.459400177;7.678599834;1168.000000;0.600517;0.978814
-2.674099922;-8.406599998;7.594399929;1168.000000;0.278512;0.957627
-1.968999982;-8.880100250;7.404300213;1168.000000;0.304580;0.957627
-2.826999903;-9.438099861;7.391399860;1168.000000;0.596718;0.983051
-2.162899971;-7.546700001;7.109499931;1168.000000;0.542809;0.961864
-3.603100061;-8.063099861;7.669499874;1168.000000;0.782265;0.983051
-3.009500027;-7.415500164;8.028599739;1168.000000;0.681608;0.966102
-3.750699997;-8.223899841;7.356999874;1168.000000;0.515534;0.949153
-3.432499886;-8.246399879;7.395500183;1168.000000;0.573245;0.970339
-2.559099913;-7.521100044;7.694099903;1168.000000;0.367260;0.957627
-3.703500032;-8.235699654;7.033899784;1168.000000;0.371342;0.957627
-2.581099987;-6.820700169;7.813700199;1168.000000;0.884530;0.957627
-3.997900009;-8.164899826;7.342400074;1168.000000;0.437099;0.978814
-2.072999954;-8.811400414;7.774899960;1168.000000;0.063920;0.974576
-1.488700032;-8.602000237;7.883100033;1168.000000;0.651474;0.974576
-2.518100023;-7.198900223;7.862599850;1168.000000;0.649500;0.957627
-1.835299969;-8.742799759;7.849599838;1168.000000;0.299504;0.949153
-2.201400042;-7.387899876;7.144499779;1168.000000;0.587759;0.974576
-3.026999950;-7.765399933;7.817500114;1168.000000;0.512060;0.978814
-2.526200056;-7.940899849;6.676700115;1168.000000;0.314880;0.978814
-3.706000090;-8.176699638;7.532199860;1168.000000;0.692110;0.957627
-2.880700111;-8.307200432;7.622799873;1168.000000;0.267999;0.966102
-2.545000076;-7.665599823;8.002699852;1168.000000;0.629661;0.961864
-2.808599949;-7.033800125;7.900499821;1168.000000;0.736542;0.961864
-1.808500051;-8.527899742;7.952199936;1168.000000;0.447137;0.944915
-2.422899961;-7.475900173;6.645299911;1168.000000;0.056802;0.970339
-1.916800022;-8.320400238;7.329199791;1168.000000;0.168910;0.991525
-3.750900030;-8.024100304;7.486000061;1168.000000;0.697364;0.978814
-2.609600067;-7.708899975;7.909299850;1168.000000;0.522373;0.961864
-2.638499975;-7.882400036;7.777999878;1168.000000;0.307042;0.957627
-3.001100063;-7.197599888;7.967700005;1168.000000;0.713029;0.974576
-2.409699917;-7.606299877;7.094399929;1168.000000;0.420895;0.970339
-3.454999924;-8.246199608;7.232999802;1168.000000;0.495946;0.953390
-2.154200077;-8.024200439;7.941899776;1168.000000;0.284186;0.974576
-2.321000099;-9.308099747;7.213399887;1168.000000;0.313902;0.970339
-4.130799770;-8.221899986;7.930399895;1168.000000;0.705772;0.987288
-3.310400009;-9.474900246;7.953800201;1168.000000;0.705043;0.991525
-1.824100018;-8.889699936;7.498600006;1168.000000;0.343844;0.987288
-3.436199903;-7.674499989;7.304500103;1168.000000;0.410214;0.983051
-1.568400025;-8.335599899;7.825399876;1168.000000;0.668726;0.978814
-2.440299988;-8.203700066;7.889400005;1168.000000;0.136369;0.987288
-2.995699883;-8.367799759;7.498400211;1168.000000;0.347351;0.966102
-3.585900068;-8.060500145;7.517899990;1168.000000;0.653993;0.987288
-2.220599890;-7.555699825;8.054900169;1168.000000;0.742298;0.966102
-3.490900040;-7.614299774;7.196800232;1168.000000;0.398448;0.970339
-3.022399902;-7.636899948;6.979400158;1168.000000;0.271787;0.970339
-3.772700071;-8.213800430;7.194799900;1168.000000;0.395170;0.970339
-3.154099941;-8.122500420;7.339499950;1168.000000;0.340424;0.987288
-2.539900064;-7.473999977;7.863100052;1168.000000;0.526226;0.957627
-2.246799946;-7.378200054;7.033100128;1168.000000;0.473928;0.974576
-2.701100111;-8.218299866;7.658899784;1168.000000;0.168464;0.961864
-2.680099964;-7.334499836;7.715400219;1168.000000;0.406734;0.974576
-2.909199953;-7.187099934;7.690899849;1168.000000;0.501341;0.987288
-2.801599979;-8.384400368;7.773200035;1168.000000;0.373252;0.961864
-2.163199902;-8.242099762;7.496300220;1168.000000;0.104850;0.983051
-3.627099991;-8.148400307;7.423500061;1168.000000;0.649167;0.974576
-3.271699905;-7.951099873;6.919799805;1168.000000;0.147172;0.974576
-2.376300097;-7.098999977;7.339600086;1168.000000;0.633092;0.957627
-2.269000053;-8.291099548;7.388999939;1168.000000;0.105130;0.966102
-2.539000034;-6.993000031;7.352799892;1168.000000;0.638110;0.961864
-2.437900066;-7.076600075;7.451300144;1168.000000;0.611549;0.966102
-2.508199930;-6.970399857;7.826000214;1168.000000;0.788614;0.991525
-3.930200100;-8.442199707;7.738500118;1168.000000;0.550758;0.957627
-2.935300112;-7.959199905;7.662799835;1168.000000;0.294970;0.987288
-2.594700098;-8.298800468;7.766300201;1168.000000;0.249071;0.966102
-3.152600050;-7.673099995;6.433899879;1168.000000;0.368159;0.978814
-2.875000000;-7.643400192;6.951600075;1168.000000;0.270307;0.974576
-2.625499964;-9.405200005;7.464200020;1168.000000;0.475592;0.983051
-2.743400097;-7.711599827;7.943399906;1168.000000;0.546297;0.970339
-1.612200022;-8.299799919;7.959899902;1168.000000;0.631299;0.974576
-3.206899881;-8.020199776;7.743500233;1168.000000;0.545384;0.978814
-2.671200037;-7.046299934;7.568600178;1168.000000;0.568816;0.974576
-2.480700016;-7.500199795;7.055699825;1168.000000;0.419455;0.949153
-2.542900085;-7.322199821;7.824600220;1168.000000;0.545292;0.957627
-1.891600013;-8.594099998;7.962900162;1168.000000;0.390656;0.978814
-2.425299883;-8.812700272;7.336400032;1168.000000;0.035074;0.983051
-2.677500010;-7.784900188;7.911200047;1168.000000;0.470174;0.961864
-2.483799934;-8.948800087;7.287099838;1168.000000;0.114041;0.974576
-3.049200058;-8.146800041;7.302499771;1168.000000;0.237816;0.966102
-2.761300087;-9.424699783;7.466800213;1168.000000;0.543292;0.991525
-1.668300033;-8.569000244;7.860599995;1168.000000;0.514898;0.983051
-2.079499960;-8.625599861;7.998799801;1168.000000;0.269417;0.970339
-1.600800037;-8.658900261;7.937900066;1168.000000;0.553359;0.978814
-2.445499897;-7.666999817;8.014599800;1168.000000;0.645227;0.923729
-2.655600071;-6.914000034;7.662099838;1168.000000;0.724522;0.936441
-2.418600082;-7.049600124;7.705800056;1168.000000;0.708827;0.961864
-2.621099949;-8.292200089;7.661200047;1168.000000;0.235176;0.974576
-3.533299923;-8.045499802;7.836999893;1168.000000;0.879360;0.987288
-2.688999891;-7.497399807;7.859000206;1168.000000;0.467940;0.974576
-3.305799961;-7.471300125;6.580800056;1168.000000;0.275691;0.961864
-3.612999916;-8.161899567;7.879000187;1168.000000;0.749029;0.983051
-3.405400038;-7.841300011;7.274499893;1168.000000;0.324270;0.957627
-2.493099928;-8.985199928;7.825799942;1168.000000;0.029784;0.974576
-2.506799936;-8.887900352;7.926199913;1168.000000;0.032911;0.953390
-3.363500118;-7.581299782;7.387000084;1168.000000;0.473736;0.970339
-3.459000111;-7.805799961;7.167200089;1168.000000;0.307864;0.970339
-2.381500006;-7.379499912;7.075300217;1168.000000;0.486485;0.978814
-3.899600029;-8.239299774;7.198999882;1168.000000;0.310563;0.966102
-2.492500067;-6.975900173;7.694200039;1168.000000;0.728844;0.966102
-1.919000030;-8.784299850;7.796899796;1168.000000;0.193673;0.966102
-2.656199932;-9.517100334;7.599899769;1168.000000;0.596212;0.987288
-4.260700226;-7.984600067;6.860499859;1168.000000;0.386162;0.974576
-3.054699898;-7.765399933;7.611199856;1168.000000;0.373463;0.966102
-2.769299984;-7.513100147;7.967199802;1168.000000;0.563500;0.940678
-2.784399986;-8.345700264;7.674699783;1168.000000;0.277890;0.949153
-2.937599897;-7.699500084;7.589499950;1168.000000;0.265983;0.970339
-2.890000105;-7.396200180;7.953299999;1168.000000;0.585914;0.940678
-2.280299902;-7.571100235;7.957200050;1168.000000;0.709635;0.961864
-2.247600079;-7.649499893;7.887800217;1168.000000;0.628371;0.957627
-1.798799992;-8.845199585;7.396999836;1168.000000;0.417974;0.974576
-3.742599964;-8.456299782;7.567100048;1168.000000;0.641200;0.970339
-2.578999996;-9.358499527;7.320000172;1168.000000;0.454361;0.974576
-1.758900046;-8.358900070;7.926700115;1168.000000;0.479177;0.970339
-2.446399927;-7.466100216;7.803400040;1168.000000;0.530828;0.978814
-2.910200119;-7.105500221;7.863500118;1168.000000;0.670802;0.983051
-3.812500000;-8.162699699;7.441800117;1168.000000;0.573974;0.961864
-3.516000032;-8.130800247;7.362500191;1168.000000;0.532027;0.961864
-3.073100090;-7.702499866;8.010999680;1168.000000;0.680921;0.983051
-1.702600002;-8.486200333;7.943200111;1168.000000;0.543164;0.957627
-3.370399952;-7.527200222;7.280799866;1168.000000;0.447956;0.970339
-3.310300112;-7.981800079;6.787000179;1168.000000;0.196094;0.953390
-2.637900114;-7.560299873;8.019700050;1168.000000;0.628735;0.961864
-2.553999901;-8.919199944;5.807799816;1168.000000;0.074524;0.983051
-2.392600060;-8.286499977;7.820400238;1168.000000;0.046714;0.978814
-3.190099955;-7.965799809;7.594500065;1168.000000;0.502267;0.961864
-2.512000084;-6.908400059;8.058199883;1168.000000;0.973372;0.966102
-3.357500076;-7.987299919;7.591000080;1168.000000;0.584135;0.978814
-3.707600117;-8.546600342;7.069799900;1168.000000;0.366537;0.978814
-2.496999979;-8.176199913;7.655799866;1168.000000;0.231481;0.957627
-3.433799982;-7.898700237;6.946400166;1168.000000;0.263132;0.978814
-4.252600193;-8.056300163;6.970200062;1168.000000;0.315023;0.957627
-2.832600117;-7.973100185;7.747300148;1168.000000;0.276407;0.970339
-3.654000044;-8.248600006;7.428299904;1168.000000;0.621366;0.953390
-1.605499983;-8.812199593;7.380000114;1168.000000;0.585483;0.970339
-2.604300022;-7.355700016;7.985700130;1168.000000;0.644859;0.974576
-2.305799961;-8.796199799;7.528399944;1168.000000;0.005863;0.983051
-2.624599934;-7.738100052;7.802800179;1168.000000;0.428026;0.966102
-3.310499907;-7.425700188;7.265900135;1168.000000;0.472224;0.957627
-2.774100065;-6.954599857;7.597499847;1168.000000;0.654219;0.970339
-4.347300053;-7.984300137;7.187500000;1168.000000;0.493311;0.974576
-2.325999975;-7.222899914;7.135200024;1168.000000;0.607985;0.974576
-1.576599956;-8.528499603;7.923999786;1168.000000;0.629093;0.949153
-2.742199898;-8.234999657;7.169199944;1168.000000;0.085823;0.970339
-3.337699890;-7.684100151;7.606400013;1168.000000;0.567321;0.961864
-1.764500022;-8.649800301;7.862199783;1168.000000;0.398267;0.961864
-3.450700045;-8.139599800;7.915699959;1168.000000;0.804398;0.970339
-2.700500011;-7.887199879;7.914899826;1168.000000;0.420120;0.961864
-2.943500042;-7.809800148;7.765600204;1168.000000;0.437950;0.987288
-3.063299894;-7.939599991;6.600399971;1168.000000;0.200924;0.978814
-3.558599949;-7.822400093;6.887499809;1168.000000;0.251125;0.978814
-4.174600124;-8.291399956;7.534299850;1168.000000;0.588800;0.957627
-3.403500080;-8.066200256;7.968500137;1168.000000;0.792737;0.983051
-2.565900087;-7.583499908;7.921700001;1168.000000;0.557170;0.961864
-2.646899939;-8.882800102;5.816800117;1168.000000;0.025447;0.991525
-3.788899899;-8.364800453;7.768400192;1168.000000;0.618018;0.987288
-2.436199903;-8.940199852;7.068699837;1168.000000;0.075789;0.974576
-3.260499954;-9.584600449;7.942999840;1168.000000;0.814999;0.978814
-2.642499924;-8.286700249;7.147500038;1168.000000;0.048349;0.970339
-2.002500057;-8.277299881;7.424200058;1168.000000;0.097953;0.961864
-3.410300016;-7.826399803;7.441299915;1168.000000;0.458099;0.957627
-2.720400095;-7.397099972;7.852000237;1168.000000;0.484412;0.953390
-3.611299992;-8.008899689;7.783400059;1168.000000;0.867516;0.974576
-1.745800018;-8.255999565;7.707099915;1168.000000;0.459767;0.957627
-2.118999958;-8.544500351;7.947400093;1168.000000;0.171729;0.974576
-2.614900112;-8.487899780;7.557099819;1168.000000;0.172143;0.970339
-2.893899918;-7.377999783;7.852900028;1168.000000;0.501766;0.974576
-3.529299974;-8.155200005;7.732500076;1168.000000;0.825181;0.974576
-2.003499985;-8.261899948;7.298600197;1168.000000;0.110166;0.953390
-1.789399981;-8.234299660;7.978400230;1168.000000;0.473021;0.974576
-2.758300066;-7.792900085;7.787399769;1168.000000;0.383198;0.961864
-3.262500048;-7.603400230;7.349199772;1168.000000;0.398875;0.987288
-3.895800114;-8.349900246;7.702099800;1168.000000;0.648834;0.974576
-2.911700010;-7.292200089;7.620800018;1168.000000;0.381493;0.983051
-1.588999987;-8.394200325;7.909399986;1168.000000;0.648976;0.974576
-2.661700010;-6.885900021;7.885300159;1168.000000;0.851461;0.983051
-2.591000080;-8.098600388;7.726099968;1168.000000;0.206691;0.961864
-2.963399887;-7.331999779;8.061599731;1168.000000;0.722703;0.966102
-2.582499981;-7.091700077;7.605500221;1168.000000;0.563674;0.961864
-2.849100113;-7.798699856;7.893099785;1168.000000;0.480945;0.957627
-2.714299917;-6.936200142;8.020600319;1168.000000;0.891787;0.970339
-3.158999920;-7.566299915;6.468299866;1168.000000;0.392467;0.983051
-2.680000067;-8.270000458;6.980999947;1168.000000;0.089821;0.966102
-2.728399992;-9.408699989;7.264100075;1168.000000;0.563242;0.983051
-2.541300058;-7.441100121;6.676000118;1168.000000;0.166184;0.978814
-2.576400042;-8.121800423;7.590799809;1168.000000;0.119470;0.940678
-2.649600029;-7.006499767;7.841300011;1168.000000;0.731377;0.957627
-2.643699884;-7.632699966;7.694499969;1168.000000;0.322188;0.953390
-2.627899885;-8.078900337;6.675799847;1168.000000;0.175406;0.978814
-2.536400080;-7.068799973;7.827000141;1168.000000;0.705487;0.974576
-2.900099993;-7.861899853;7.681600094;1168.000000;0.337848;0.978814
-4.227399826;-8.359399796;7.751100063;1168.000000;0.674179;0.995763
-3.009099960;-7.335599899;7.873799801;1168.000000;0.573571;0.970339
-2.557499886;-6.983500004;7.488800049;1168.000000;0.642903;0.970339
-2.867899895;-8.305199623;7.469299793;1168.000000;0.210132;0.978814
-3.167299986;-7.935999870;6.530700207;1168.000000;0.220654;0.974576
-2.790699959;-8.130200386;7.676300049;1168.000000;0.166857;0.961864
-3.101799965;-7.904200077;7.553500175;1168.000000;0.433283;0.978814
-2.758199930;-8.441699982;7.695099831;1168.000000;0.362575;0.970339
-3.800499916;-8.389200211;7.495800018;1168.000000;0.584128;0.961864
-2.169300079;-9.138099670;7.022500038;1168.000000;0.032653;0.970339
-2.059999943;-7.475399971;7.123499870;1168.000000;0.602642;0.970339
-1.870399952;-7.592999935;7.174200058;1168.000000;0.747682;0.978814
-2.111000061;-7.392000198;7.038499832;1168.000000;0.514712;0.974576
-2.100199938;-6.531899929;7.567100048;1168.000000;1.260698;0.974576
-2.309700012;-6.781000137;7.695300102;1168.000000;0.971915;0.970339
-2.422899961;-6.832600117;7.417099953;1168.000000;0.829615;0.961864
-2.502000093;-6.742000103;7.790500164;1168.000000;0.963257;0.966102
-2.024399996;-7.354400158;6.779600143;1168.000000;0.375585;0.966102
-2.342299938;-6.758500099;7.575900078;1168.000000;0.947125;0.949153
-2.560899973;-6.799900055;7.512400150;1168.000000;0.818040;0.949153
-2.223999977;-7.239200115;8.021400452;1168.000000;0.896493;0.987288
-2.406100035;-6.843500137;7.835599899;1168.000000;0.931258;0.957627
-2.298599958;-6.852200031;7.335499763;1168.000000;0.876955;0.957627
-2.274300098;-6.871099949;7.936800003;1168.000000;1.020009;0.974576
-2.363100052;-6.909299850;7.274799824;1168.000000;0.802165;0.949153
-2.417200089;-6.707200050;7.512700081;1168.000000;0.952169;0.970339
-2.204099894;-6.723800182;7.521599770;1168.000000;1.039461;0.987288
-1.940899968;-7.337100029;7.185900211;1168.000000;0.730066;0.974576
-2.351700068;-6.644499779;7.572599888;1168.000000;1.043187;0.953390
-2.284399986;-6.856800079;7.807400227;1168.000000;0.964697;0.949153
-1.414800048;-8.388699532;7.865099907;1168.000000;0.818432;0.970339
-1.389400005;-8.513899803;7.971700191;1168.000000;0.753111;0.970339
-2.283499956;-6.602000237;7.706799984;1168.000000;1.138024;0.974576
-2.312400103;-6.818200111;7.435100079;1168.000000;0.895604;0.953390
-2.182399988;-6.753900051;7.380899906;1168.000000;1.021336;0.978814
-2.322900057;-6.872200012;7.638000011;1168.000000;0.874723;0.949153
-2.403899908;-6.957200050;7.639999866;1168.000000;0.764937;0.957627
-2.043499947;-7.517899990;7.297900200;1168.000000;0.738070;0.978814
-2.431999922;-6.778299809;7.684199810;1168.000000;0.917752;0.953390
-2.385900021;-7.069499969;7.203700066;1168.000000;0.677822;0.970339
-2.389899969;-6.862699986;7.547299862;1168.000000;0.829595;0.944915
-2.531699896;-6.752399921;7.403800011;1168.000000;0.865129;0.961864
-2.125900030;-6.705900192;7.699800014;1168.000000;1.131442;0.961864
-2.034800053;-7.352900028;6.920100212;1168.000000;0.462175;0.974576
-2.238899946;-7.140299797;8.000800133;1168.000000;0.916400;0.961864
-2.295700073;-6.607600212;7.460800171;1168.000000;1.088864;0.953390
-2.058599949;-6.677599907;7.529399872;1168.000000;1.163096;0.983051
-2.087699890;-7.260600090;6.779399872;1168.000000;0.380761;0.978814
-2.311199903;-6.931099892;7.545800209;1168.000000;0.813686;0.974576
-2.446899891;-6.952000141;7.934700012;1168.000000;0.885817;0.978814
-2.390199900;-6.659200191;7.675399780;1168.000000;1.036222;0.961864
-1.448500037;-8.391300201;7.961100101;1168.000000;0.791752;0.966102
-2.357000113;-6.642499924;7.771999836;1168.000000;1.092201;0.978814
-2.049000025;-6.730999947;7.373400211;1168.000000;1.122315;0.987288
-2.108700037;-6.544099808;7.689099789;1168.000000;1.267335;0.991525
-2.360800028;-6.998899937;7.396200180;1168.000000;0.718006;0.978814
-2.383800030;-7.014900208;7.517499924;1168.000000;0.700162;0.966102
-2.572599888;-6.794400215;7.912300110;1168.000000;0.957227;0.961864
-3.148200035;-10.294599533;8.729200363;1168.000000;1.268094;0.987288
-3.586800098;-10.279600143;8.187800407;1168.000000;1.247412;0.983051
-3.002300024;-10.184499741;8.798999786;1168.000000;1.114830;0.983051
-3.568900108;-10.260899544;8.683199883;1168.000000;1.144317;0.995763
-3.102499962;-10.284799576;8.867199898;1168.000000;1.260838;0.987288
-3.203599930;-10.002300262;8.396300316;1168.000000;1.044269;0.974576
-3.131900072;-9.976099968;8.730099678;1168.000000;0.996108;0.966102
-3.200400114;-10.037300110;8.601300240;1168.000000;1.043378;0.970339
-3.010400057;-10.288599968;8.373800278;1168.000000;1.211635;0.987288
-3.216399908;-10.092399597;8.442099571;1168.000000;1.105341;0.978814
-3.083300114;-10.192899704;8.515999794;1168.000000;1.142038;0.974576
-3.493099928;-10.256099701;8.134499550;1168.000000;1.251782;0.987288
-3.155400038;-10.105600357;8.761099815;1168.000000;1.117570;0.983051
-3.109200001;-10.113100052;8.960599899;1168.000000;1.146824;0.991525
-3.115400076;-10.294899940;8.487000465;1168.000000;1.248688;0.995763
-3.444700003;-10.201399803;8.691100121;1168.000000;1.107519;0.995763
-2.905400038;-10.298800468;8.679499626;1168.000000;1.144016;0.974576
-3.184099913;-10.157099724;8.549200058;1168.000000;1.160843;0.974576
-3.283799887;-10.223199844;8.478300095;1168.000000;1.190140;0.970339
-3.105299950;-10.084600449;8.429800034;1168.000000;1.070428;0.957627
-3.163100004;-10.189299583;8.440500259;1168.000000;1.187146;0.949153
-3.061700106;-10.248800278;8.640800476;1168.000000;1.179951;0.987288
-3.308799982;-10.063199997;8.384699821;1168.000000;1.055317;0.983051
-3.097599983;-10.293800354;8.966899872;1168.000000;1.291997;1.000000
-3.008500099;-10.266900063;8.473500252;1168.000000;1.177547;0.961864
-3.233099937;-10.038100243;8.222999573;1168.000000;1.117551;0.974576
-4.526599884;-8.764200211;9.245800018;1168.000000;1.060025;0.995763
-3.290699959;-9.913299561;8.596799850;1168.000000;0.892079;0.978814
-3.986900091;-8.889100075;9.089200020;1168.000000;0.559394;0.983051
-4.094699860;-9.406700134;8.947099686;1168.000000;0.560423;0.978814
-3.837100029;-9.315699577;9.040900230;1168.000000;0.443723;0.987288
-4.298600197;-8.410699844;8.699700356;1168.000000;0.627231;0.983051
-4.559400082;-8.747099876;8.634799957;1168.000000;0.729272;0.991525
-4.339799881;-9.615599632;9.021599770;1168.000000;0.880893;0.978814
-3.402899981;-10.045200348;8.574399948;1168.000000;0.972172;0.974576
-4.053999901;-8.689399719;8.864999771;1168.000000;0.514675;1.000000
-4.033500195;-8.971799850;9.057200432;1168.000000;0.535861;0.974576
-4.452600002;-9.575200081;9.018300056;1168.000000;0.944569;0.987288
-4.622399807;-8.312700272;8.795800209;1168.000000;0.959746;0.983051
-4.070799828;-8.904100418;8.800100327;1168.000000;0.421072;0.970339
-4.505799770;-9.553099632;9.105699539;1168.000000;1.012448;0.995763
-4.181399822;-9.379899979;9.038700104;1168.000000;0.659962;0.987288
-3.980600119;-9.439499855;8.080800056;1168.000000;0.386982;0.983051
-4.162000179;-8.999799728;9.326600075;1168.000000;0.816261;0.995763
-4.188399792;-8.599100113;8.806799889;1168.000000;0.547700;0.991525
-4.177899837;-9.226300240;8.693799973;1168.000000;0.457891;0.987288
-3.701400042;-10.243000031;8.235500336;1168.000000;1.190791;0.978814
-4.256700039;-9.069899559;9.233400345;1168.000000;0.796870;0.995763
-4.144400120;-9.598299980;9.103099823;1168.000000;0.783008;0.983051
-4.045599937;-9.091300011;9.094099998;1168.000000;0.551560;0.983051
-4.400100231;-9.523099899;9.109299660;1168.000000;0.919052;1.000000
-4.464099884;-8.786000252;8.681699753;1168.000000;0.663565;0.987288
-4.463200092;-8.328800201;8.686200142;1168.000000;0.784220;0.970339
-4.405300140;-9.453499794;9.247599602;1168.000000;0.971391;0.995763
-3.521899939;-9.711899757;9.365699768;1168.000000;0.932642;0.995763
-3.820199966;-9.196499825;8.979800224;1168.000000;0.344832;0.987288
-4.386700153;-9.654999733;9.137999535;1168.000000;0.987450;1.000000
-4.223100185;-8.938099861;9.055100441;1168.000000;0.672417;0.970339
-3.978399992;-8.901700020;8.735300064;1168.000000;0.323478;0.970339
-3.438699961;-9.900400162;8.871000290;1168.000000;0.845071;0.995763
-4.199399948;-9.025899887;8.571299553;1168.000000;0.415481;0.978814
-3.265100002;-9.909999847;8.257800102;1168.000000;0.986307;0.970339
-4.473299980;-8.523300171;8.838899612;1168.000000;0.787028;0.987288
-4.090899944;-9.452400208;9.084799767;1168.000000;0.660236;0.991525
-4.108900070;-9.073900223;8.494999886;1168.000000;0.302931;0.995763
-4.502299786;-8.282199860;8.484600067;1168.000000;0.786593;0.983051
-4.304500103;-8.344799995;8.186400414;1168.000000;0.605170;0.961864
-3.535700083;-10.143099785;8.700699806;1168.000000;1.032722;0.987288
-4.164299965;-8.710599899;8.984900475;1168.000000;0.668527;0.978814
-4.276800156;-8.494500160;8.636500359;1168.000000;0.539597;0.983051
-3.581099987;-9.659799576;9.451100349;1168.000000;0.959513;0.991525
-4.424499989;-8.254500389;8.799300194;1168.000000;0.846612;0.983051
-4.219099998;-9.098600388;8.970100403;1168.000000;0.601552;0.961864
-4.159999847;-9.369400024;9.216500282;1168.000000;0.758346;0.995763
-4.095600128;-8.890500069;8.936400414;1168.000000;0.518335;0.987288
-3.655400038;-10.188199997;8.115599632;1168.000000;1.149115;0.978814
-3.610699892;-9.330100060;9.184599876;1168.000000;0.567110;0.978814
-3.242700100;-9.791500092;8.546899796;1168.000000;0.818209;0.978814
-4.425700188;-9.162199974;8.835499763;1168.000000;0.724214;0.987288
-4.083899975;-8.999899864;9.240099907;1168.000000;0.702382;1.000000
-3.770100117;-9.082300186;8.870599747;1168.000000;0.221621;0.966102
-3.474900007;-9.951499939;8.553400040;1168.000000;0.864691;0.974576
-4.190299988;-8.410099983;8.649299622;1168.000000;0.530566;0.983051
-4.161699772;-9.012499809;9.102999687;1168.000000;0.645508;0.970339
-3.868400097;-9.024100304;9.213700294;1168.000000;0.583072;0.983051
-4.694600105;-8.347399712;8.668899536;1168.000000;0.958017;0.983051
-4.124599934;-9.224100113;8.821299553;1168.000000;0.461886;0.978814
-3.391400099;-9.951399803;8.770999908;1168.000000;0.889731;0.983051
-4.105100155;-9.029999733;8.946599960;1168.000000;0.499919;0.974576
-3.533099890;-10.168700218;8.548700333;1168.000000;1.064021;0.978814
-3.905699968;-9.099800110;9.027400017;1168.000000;0.417378;0.983051
-3.993000031;-9.203100204;8.970999718;1168.000000;0.430310;0.991525
-3.229899883;-9.975799561;8.785200119;1168.000000;0.980910;0.995763
-4.173200130;-9.077199936;8.739100456;1168.000000;0.452134;0.970339
-3.952199936;-9.080499649;9.211600304;1168.000000;0.603699;0.991525
-4.228000164;-9.253800392;8.486300468;1168.000000;0.458345;0.966102
-4.242899895;-8.978899956;8.897299767;1168.000000;0.589992;0.987288
-4.125500202;-9.075699806;8.638600349;1168.000000;0.365184;0.970339
-3.257400036;-9.956000328;8.501399994;1168.000000;0.956771;0.961864
-3.419600010;-9.923899651;8.352299690;1168.000000;0.903266;0.974576
-4.333799839;-8.506299973;8.792099953;1168.000000;0.661762;0.991525
-3.993799925;-8.775699615;8.368100166;1168.000000;0.111847;0.974576
-4.307899952;-9.643400192;8.853599548;1168.000000;0.820025;0.991525
-3.769999981;-9.586899757;8.974699974;1168.000000;0.561236;0.991525
-4.155499935;-8.863800049;9.033200264;1168.000000;0.630773;0.983051
-3.578999996;-9.434100151;9.197500229;1168.000000;0.628951;0.987288
-3.496799946;-9.777400017;8.749400139;1168.000000;0.689665;0.983051
-4.599500179;-8.425499916;8.672599792;1168.000000;0.846417;0.991525
-3.629800081;-9.582799911;9.404899597;1168.000000;0.874168;0.991525
-4.291699886;-9.391099930;9.009699821;1168.000000;0.733790;0.991525
-4.230800152;-9.249799728;8.821900368;1168.000000;0.564589;0.978814
-3.550699949;-10.015000343;8.846099854;1168.000000;0.921419;0.987288
-4.045199871;-9.333999634;9.165900230;1168.000000;0.643156;0.983051
-4.004199982;-9.462400436;9.163800240;1168.000000;0.674806;0.974576
-4.162499905;-9.148200035;9.371299744;1168.000000;0.844386;0.995763
-4.361999989;-9.512100220;8.956299782;1168.000000;0.819393;0.991525
-4.369200230;-8.813099861;8.778100014;1168.000000;0.639952;0.983051
-4.396999836;-8.607000351;8.888099670;1168.000000;0.742019;0.995763
-4.089600086;-9.224300385;8.560999870;1168.000000;0.340287;0.974576
-4.344399929;-9.201000214;8.716699600;1168.000000;0.608968;0.966102
-3.884999990;-9.363300323;9.210100174;1168.000000;0.623520;0.991525
-4.358799934;-8.319199562;8.739299774;1168.000000;0.737216;0.983051
-4.211900234;-9.255000114;8.322699547;1168.000000;0.406742;0.991525
-4.110799789;-9.008500099;8.783300400;1168.000000;0.418092;0.974576
-4.606100082;-8.222399712;8.412599564;1168.000000;0.895902;0.987288
-4.340799809;-9.443099976;8.795499802;1168.000000;0.722124;0.974576
-3.457299948;-9.909500122;8.703200340;1168.000000;0.823159;0.983051
-4.202899933;-8.674699783;9.165399551;1168.000000;0.827270;0.995763
-4.448200226;-9.094499588;8.706100464;1168.000000;0.692706;0.991525
-4.169799805;-8.892700195;8.788499832;1168.000000;0.503580;0.974576
-3.899699926;-9.135000229;9.132300377;1168.000000;0.508469;0.983051
-4.236800194;-9.361499786;9.121000290;1168.000000;0.742386;0.983051
-4.243000031;-9.710200310;8.920700073;1168.000000;0.837693;0.987288
-4.422200203;-8.408499718;8.752699852;1168.000000;0.743640;0.966102
-4.229700089;-9.125800133;9.073699951;1168.000000;0.668153;0.995763
-4.102499962;-8.576100349;8.894900322;1168.000000;0.581585;0.995763
-4.134399891;-9.089099884;9.211000443;1168.000000;0.698226;0.991525
-4.642399788;-8.844200134;8.586400032;1168.000000;0.796113;0.987288
-4.335199833;-8.435500145;8.217700005;1168.000000;0.564358;0.983051
-3.383399963;-9.895400047;8.233900070;1168.000000;0.938464;0.987288
-3.797100067;-9.055199623;8.545900345;1168.000000;0.042328;0.974576
-4.533199787;-8.355600357;8.814700127;1168.000000;0.880736;0.995763
-3.933199883;-8.869000435;8.823900223;1168.000000;0.355506;0.991525
-3.400700092;-9.946200371;8.449099541;1168.000000;0.901163;0.961864
-3.873699903;-8.889499664;9.098699570;1168.000000;0.518816;0.966102
-4.343800068;-8.358300209;8.302300453;1168.000000;0.605015;0.974576
-3.655400038;-9.364999771;9.338100433;1168.000000;0.717227;0.995763
-4.071800232;-8.759900093;8.793399811;1168.000000;0.456376;0.970339
-4.712699890;-8.400899887;8.758899689;1168.000000;0.983829;0.995763
-3.595200062;-9.819299698;8.315799713;1168.000000;0.780405;0.983051
-3.406699896;-9.813899994;8.464200020;1168.000000;0.776102;0.987288
-4.264299870;-9.191699982;8.636500359;1168.000000;0.508394;0.978814
-4.322999954;-9.737700462;8.976400375;1168.000000;0.927024;0.991525
-4.028299809;-9.387200356;9.030699730;1168.000000;0.556792;0.991525
-3.444000006;-9.684399605;8.662400246;1168.000000;0.616443;0.987288
-3.663700104;-9.793299675;8.239600182;1168.000000;0.753762;0.987288
-4.521900177;-8.681300163;8.542499542;1168.000000;0.668388;0.991525
-3.599900007;-9.453900337;9.374699593;1168.000000;0.789939;0.991525
-3.315599918;-9.875300407;8.372500420;1168.000000;0.893253;0.944915
-4.432099819;-8.336000443;8.174599648;1168.000000;0.707601;0.966102
-3.447000027;-9.666099548;8.073499680;1168.000000;0.745192;0.970339
-3.470599890;-10.054200172;8.479100227;1168.000000;0.975720;0.983051
-3.443900108;-9.574999809;9.353300095;1168.000000;0.862930;0.991525
-3.317300081;-9.738499641;8.049300194;1168.000000;0.881053;0.953390
-3.524199963;-9.925399780;8.803899765;1168.000000;0.832220;0.983051
-4.077300072;-9.503499985;9.220999718;1168.000000;0.771243;0.995763
-3.689399958;-9.623900414;9.476599693;1168.000000;0.953874;0.995763
-3.705600023;-9.423199654;9.420999527;1168.000000;0.813808;1.000000
-3.250799894;-9.973600388;8.672900200;1168.000000;0.961531;0.974576
-4.106599808;-8.922900200;9.114000320;1168.000000;0.636137;1.000000
-4.088600159;-8.833800316;8.705699921;1168.000000;0.399543;0.987288
-4.077700138;-9.352299690;9.276499748;1168.000000;0.753840;1.000000
-4.263899803;-9.663299561;9.076899529;1168.000000;0.881269;0.995763
-4.288899899;-8.831999779;8.706899643;1168.000000;0.536411;0.974576
-3.364399910;-9.638899803;8.582200050;1168.000000;0.620648;0.978814
-3.628499985;-11.048299789;7.026199818;1168.000000;0.754277;0.978814
-3.614200115;-10.708700180;6.038899899;1168.000000;0.212061;0.974576
-3.461199999;-11.162599564;6.569200039;1168.000000;0.532700;0.978814
-3.453200102;-10.921099663;6.276899815;1168.000000;0.503669;0.983051
-3.720999956;-10.713500023;7.669600010;1168.000000;1.196868;0.987288
-3.043600082;-10.220399857;7.041600227;1168.000000;0.669376;0.978814
-3.638400078;-10.646599770;6.638100147;1168.000000;0.457508;0.961864
-3.834700108;-11.127900124;6.684999943;1168.000000;0.358950;0.983051
-3.914000034;-11.378899574;6.607900143;1168.000000;0.210785;0.987288
-3.888200045;-11.300600052;6.683499813;1168.000000;0.283816;0.983051
-3.480299950;-10.807499886;6.518300056;1168.000000;0.497736;0.949153
-3.927200079;-11.211700439;6.486199856;1168.000000;0.126312;0.970339
-3.742899895;-10.951399803;6.536200047;1168.000000;0.403690;0.974576
-3.597399950;-10.846099854;6.480800152;1168.000000;0.461710;0.987288
-3.704400063;-10.340100288;7.716199875;1168.000000;0.970161;0.970339
-3.595299959;-11.188400269;6.670700073;1168.000000;0.475546;0.991525
-3.579200029;-11.010700226;6.786600113;1168.000000;0.623545;0.961864
-3.657099962;-10.878700256;6.981100082;1168.000000;0.777639;0.987288
-3.784100056;-10.463800430;7.851099968;1168.000000;1.139494;0.991525
-3.362799883;-10.967800140;6.172599792;1168.000000;0.578204;0.961864
-3.625200033;-10.597399712;7.756199837;1168.000000;1.183015;0.978814
-3.862999916;-11.291299820;6.577899933;1168.000000;0.199913;0.970339
-3.721800089;-10.759400368;6.794499874;1168.000000;0.641817;0.987288
-3.564899921;-10.836299896;6.870399952;1168.000000;0.758151;0.970339
-3.704499960;-10.579099655;6.851299763;1168.000000;0.638701;0.974576
-3.409399986;-11.131899834;6.687600136;1168.000000;0.644786;0.991525
-3.315700054;-10.354700089;7.242300034;1168.000000;0.857216;0.987288
-3.075799942;-10.077500343;6.879700184;1168.000000;0.462825;0.949153
-3.819099903;-11.055899620;6.414400101;1168.000000;0.229711;0.978814
-3.659499884;-10.409099579;7.816899776;1168.000000;1.098660;0.983051
-3.197900057;-10.175000191;6.549300194;1168.000000;0.194998;0.987288
-3.611799955;-10.658300400;7.582799911;1168.000000;1.123986;0.966102
-3.232100010;-10.694800377;6.559000015;1168.000000;0.618707;0.974576
-4.060900211;-10.728899956;7.816800117;1168.000000;1.301931;0.987288
-3.726799965;-10.504799843;7.618899822;1168.000000;1.004927;0.966102
-3.396500111;-10.272700310;7.238200188;1168.000000;0.750872;0.966102
-3.280200005;-11.058899879;6.667799950;1168.000000;0.754288;0.970339
-3.782900095;-10.418899536;7.679299831;1168.000000;0.979620;0.970339
-3.973799944;-11.331000328;6.482100010;1168.000000;0.069436;0.987288
-3.161999941;-10.092399597;6.485599995;1168.000000;0.091377;0.957627
-4.277900219;-10.627200127;6.446300030;1168.000000;0.581768;0.987288
-3.725800037;-10.264100075;6.628099918;1168.000000;0.455299;0.957627
-4.157599926;-10.625300407;7.148300171;1168.000000;0.916540;0.970339
-3.965600014;-10.483699799;7.651999950;1168.000000;1.001818;0.983051
-3.753900051;-10.951899529;7.635499954;1168.000000;1.295747;0.983051
-3.911299944;-10.479900360;7.524300098;1168.000000;0.911596;0.974576
-3.489700079;-11.338000298;6.574900150;1168.000000;0.508823;0.961864
-3.836199999;-11.143300056;6.467400074;1168.000000;0.202540;0.974576
-2.897500038;-10.419300079;7.220399857;1168.000000;0.932892;0.983051
-3.993200064;-10.505800247;6.595200062;1168.000000;0.470968;0.983051
-3.586899996;-10.554800034;7.603099823;1168.000000;1.063173;0.961864
-3.346800089;-10.705100060;6.524199963;1168.000000;0.520285;0.961864
-3.212399960;-10.226300240;7.120800018;1168.000000;0.737481;0.970339
-3.746400118;-10.517900467;6.753399849;1168.000000;0.534882;0.978814
-3.488800049;-11.155699730;6.466199875;1168.000000;0.461869;0.970339
-3.753099918;-10.796299934;7.621099949;1168.000000;1.232452;0.978814
-3.885400057;-11.193200111;6.592500210;1168.000000;0.237435;0.970339
-3.796299934;-10.363800049;6.561299801;1168.000000;0.366043;0.944915
-3.997699976;-10.677200317;7.059700012;1168.000000;0.880367;0.961864
-3.729199886;-11.174200058;6.753399849;1168.000000;0.443466;0.987288
-3.639600039;-10.960100174;6.669899940;1168.000000;0.533831;0.991525
-3.987799883;-10.661600113;7.863599777;1168.000000;1.278110;0.987288
-3.913100004;-11.202599525;6.689199924;1168.000000;0.306649;0.987288
-3.192199945;-10.569000244;6.584499836;1168.000000;0.550247;0.987288
-3.674200058;-10.499400139;7.436299801;1168.000000;0.901359;0.966102
-3.714600086;-11.053700447;6.685400009;1168.000000;0.455677;0.970339
-3.259700060;-10.814900398;7.041699886;1168.000000;0.994323;0.978814
-3.484299898;-11.218799591;6.691400051;1168.000000;0.570897;0.983051
-3.710799932;-10.620100021;7.593999863;1168.000000;1.079748;0.978814
-3.908200026;-10.695699692;7.201499939;1168.000000;0.952992;0.983051
-3.311100006;-10.753100395;7.115200043;1168.000000;1.011041;0.974576
-3.528199911;-10.980799675;7.578599930;1168.000000;1.293002;0.991525
-3.003299952;-10.315600395;6.500000000;1168.000000;0.300343;0.970339
-3.455800056;-10.794899940;6.673099995;1168.000000;0.607132;0.983051
-3.716500044;-10.965100288;6.756199837;1168.000000;0.544162;0.970339
-3.430900097;-10.641599655;7.527599812;1168.000000;1.140395;0.995763
-3.753200054;-11.290399551;6.682600021;1168.000000;0.348487;0.983051
-3.135200024;-10.086700439;6.973400116;1168.000000;0.534841;0.987288
-3.446799994;-10.636599541;7.715400219;1168.000000;1.236285;0.987288
-3.632900000;-10.598500252;6.958600044;1168.000000;0.751501;0.970339
-3.569099903;-10.813899994;6.326700211;1168.000000;0.370697;0.987288
-3.743099928;-10.370200157;6.475399971;1168.000000;0.274275;0.944915
-3.382900000;-11.199099541;6.767899990;1168.000000;0.698560;0.991525
-3.506999969;-11.031399727;6.640600204;1168.000000;0.567658;0.987288
-3.638499975;-11.274600029;6.731599808;1168.000000;0.463506;0.983051
