//X;Y;Z;Scalar field;Original cloud index;ID;C2C absolute distances;Illuminance (PCV)
8.772700310;5.361800194;12.950200081;275.000000;0.000000;nan;0.591967;0.843220
8.056400299;5.253699780;13.864100456;275.000000;0.000000;nan;0.511063;0.944915
8.914899826;5.533199787;13.087800026;275.000000;0.000000;nan;0.547155;0.868644
8.790100098;5.647399902;12.992600441;275.000000;0.000000;nan;0.558577;0.838983
8.517700195;5.412199974;13.293299675;275.000000;0.000000;nan;0.256308;0.885593
8.862799644;5.166900158;12.928999901;275.000000;0.000000;nan;0.533371;0.805085
8.149100304;4.885099888;13.736100197;275.000000;0.000000;nan;0.693034;0.894068
8.863499641;5.498400211;13.393899918;275.000000;0.000000;nan;0.426975;0.915254
9.047699928;5.773399830;13.106800079;275.000000;0.000000;nan;0.520062;0.864407
8.745100021;5.768599987;13.301799774;275.000000;0.000000;nan;0.348372;0.898305
8.346199989;5.034399986;13.765600204;275.000000;0.000000;nan;0.540118;0.885593
9.043499947;5.628699780;13.259900093;275.000000;0.000000;nan;0.401308;0.889831
8.011199951;5.173200130;13.924599648;275.000000;0.000000;nan;0.619620;0.923729
9.038100243;5.553199768;13.165499687;275.000000;0.000000;nan;0.413456;0.843220
9.060999870;3.925699949;14.589699745;275.000000;0.000000;nan;0.243539;0.877119
9.342499733;5.197400093;15.032199860;275.000000;0.000000;nan;0.735434;0.885593
11.701199532;3.953299999;17.562799454;275.000000;0.000000;nan;1.192372;0.957627
12.185400009;5.183000088;15.913100243;275.000000;0.000000;nan;0.922386;0.919492
11.768899918;4.074399948;15.833600044;275.000000;0.000000;nan;0.860935;0.860169
11.880499840;4.839700222;16.062999725;275.000000;0.000000;nan;1.136154;0.889831
13.151900291;4.169700146;15.673000336;275.000000;0.000000;nan;1.038171;0.944915
13.020400047;4.527200222;15.915399551;275.000000;0.000000;nan;1.289768;0.944915
12.094200134;5.560999870;15.322500229;275.000000;0.000000;nan;0.381051;0.864407
12.362600327;5.400000095;15.923700333;275.000000;0.000000;nan;0.978372;0.923729
12.569700241;5.956500053;15.442399979;275.000000;0.000000;nan;0.952026;0.919492
13.860400200;4.966000080;15.694600105;275.000000;0.000000;nan;1.015567;0.949153
12.336700439;5.287899971;15.737999916;275.000000;0.000000;nan;0.801883;0.902542
12.316900253;5.394599915;16.031000137;275.000000;0.000000;nan;1.060238;0.978814
11.732500076;4.161699772;16.018299103;275.000000;0.000000;nan;1.020015;0.881356
12.932999611;5.131299973;15.303199768;275.000000;0.000000;nan;0.979706;0.860169
12.341500282;4.813300133;15.381699562;275.000000;0.000000;nan;0.662402;0.864407
13.080699921;4.470099926;15.746800423;275.000000;0.000000;nan;1.113615;0.881356
12.097599983;5.363200188;15.419199944;275.000000;0.000000;nan;0.409627;0.877119
12.078300476;5.636099815;15.389399529;275.000000;0.000000;nan;0.470192;0.902542
13.124699593;4.120600224;15.356900215;275.000000;0.000000;nan;0.847701;0.894068
12.264499664;5.926499844;15.566699982;275.000000;0.000000;nan;0.840951;0.902542
12.989000320;4.429399967;15.736100197;275.000000;0.000000;nan;1.160907;0.898305
12.970100403;4.347000122;15.795100212;275.000000;0.000000;nan;1.219641;0.944915
12.392499924;5.290500164;15.975199699;275.000000;0.000000;nan;1.038338;0.944915
13.231599808;4.001299858;15.378600121;275.000000;0.000000;nan;0.838477;0.923729
12.119899750;4.849400043;15.519399643;275.000000;0.000000;nan;0.708555;0.851695
12.971400261;4.492899895;15.500499725;275.000000;0.000000;nan;0.986370;0.868644
13.234800339;4.237199783;15.340299606;275.000000;0.000000;nan;0.724245;0.898305
11.663499832;4.860599995;15.852199554;275.000000;0.000000;nan;0.965844;0.877119
12.370699883;5.907700062;15.406700134;275.000000;0.000000;nan;0.785996;0.881356
12.867699623;4.232100010;15.630700111;275.000000;0.000000;nan;1.060749;0.877119
12.561300278;3.913100004;15.480799675;275.000000;0.000000;nan;0.745798;0.877119
12.803700447;4.025199890;15.256400108;275.000000;0.000000;nan;0.821730;0.885593
11.686100006;4.500100136;15.961099625;275.000000;0.000000;nan;0.980444;0.885593
12.662899971;4.388000011;15.340999603;275.000000;0.000000;nan;0.681199;0.881356
12.000900269;4.578999996;15.835700035;275.000000;0.000000;nan;0.971031;0.881356
12.228199959;5.396200180;15.288399696;275.000000;0.000000;nan;0.373858;0.843220
13.834899902;5.028600216;15.597800255;275.000000;0.000000;nan;0.972803;0.949153
12.872599602;4.524499893;15.655500412;275.000000;0.000000;nan;1.049979;0.872881
13.077300072;4.354400158;15.791999817;275.000000;0.000000;nan;1.151772;0.902542
13.058600426;4.212299824;15.792799950;275.000000;0.000000;nan;1.178530;0.949153
12.215999603;5.027599812;15.493000031;275.000000;0.000000;nan;0.614176;0.877119
11.660699844;5.074299812;15.806500435;275.000000;0.000000;nan;0.844014;0.872881
11.730299950;4.287700176;16.048500061;275.000000;0.000000;nan;1.044449;0.902542
11.844900131;4.711999893;15.827799797;275.000000;0.000000;nan;0.962590;0.830508
12.924400330;3.948400021;15.295000076;275.000000;0.000000;nan;0.919665;0.889831
11.873299599;4.860499859;15.855999947;275.000000;0.000000;nan;0.941522;0.906780
13.410799980;4.016099930;15.667099953;275.000000;0.000000;nan;0.962291;0.974576
12.244999886;4.357299805;15.468500137;275.000000;0.000000;nan;0.715346;0.889831
12.265899658;4.458700180;15.526000023;275.000000;0.000000;nan;0.757837;0.860169
13.106399536;4.059599876;15.275500298;275.000000;0.000000;nan;0.839731;0.877119
12.957200050;5.017600060;15.773500443;275.000000;0.000000;nan;1.285938;0.919492
11.918700218;4.704599857;15.983400345;275.000000;0.000000;nan;1.113905;0.902542
12.838800430;4.367099762;15.348699570;275.000000;0.000000;nan;0.796103;0.864407
13.151100159;4.939000130;15.864600182;275.000000;0.000000;nan;1.285933;0.940678
12.019300461;5.043099880;15.705400467;275.000000;0.000000;nan;0.737730;0.915254
12.613699913;4.480700016;15.965600014;275.000000;0.000000;nan;1.233714;0.949153
12.162799835;4.943299770;15.402299881;275.000000;0.000000;nan;0.580998;0.868644
12.088299751;5.123000145;15.944299698;275.000000;0.000000;nan;0.945693;0.932203
11.901700020;4.907999992;15.719599724;275.000000;0.000000;nan;0.799026;0.877119
12.259300232;5.905900002;15.437000275;275.000000;0.000000;nan;0.748046;0.889831
12.900300026;4.494699955;15.338800430;275.000000;0.000000;nan;0.820793;0.822034
12.171299934;4.802000046;15.431900024;275.000000;0.000000;nan;0.703654;0.834746
12.622099876;4.676599979;15.953700066;275.000000;0.000000;nan;1.236743;0.957627
12.703499794;5.508999825;15.889699936;275.000000;0.000000;nan;1.145733;0.953390
12.005100250;5.273300171;15.273699760;275.000000;0.000000;nan;0.254245;0.834746
12.698599815;5.894899845;15.447199821;275.000000;0.000000;nan;1.007051;0.915254
12.265299797;4.257100105;15.252099991;275.000000;0.000000;nan;0.541352;0.843220
13.017000198;4.991199970;15.905200005;275.000000;0.000000;nan;1.404362;0.970339
11.939999580;4.504000187;15.680899620;275.000000;0.000000;nan;0.790369;0.877119
12.035300255;4.985700130;15.445799828;275.000000;0.000000;nan;0.545821;0.843220
12.011599541;4.784999847;15.916899681;275.000000;0.000000;nan;1.037857;0.902542
12.392000198;5.915599823;15.579999924;275.000000;0.000000;nan;0.896509;0.906780
11.970800400;5.819099903;15.848400116;275.000000;0.000000;nan;0.938309;0.911017
11.849800110;4.621799946;15.698300362;275.000000;0.000000;nan;0.814146;0.881356
12.986200333;5.067800045;15.377499580;275.000000;0.000000;nan;1.033230;0.911017
11.877499580;4.803800106;15.963800430;275.000000;0.000000;nan;1.063203;0.877119
12.005599976;5.704899788;16.124700546;275.000000;0.000000;nan;1.146789;0.995763
13.172100067;4.585100174;15.912500381;275.000000;0.000000;nan;1.215794;0.923729
12.159099579;4.344399929;15.319199562;275.000000;0.000000;nan;0.589636;0.817797
13.168299675;4.609000206;15.508199692;275.000000;0.000000;nan;0.893818;0.894068
12.486499786;5.964799881;15.585200310;275.000000;0.000000;nan;0.978957;0.940678
13.066699982;3.916899920;15.367300034;275.000000;0.000000;nan;0.981379;0.894068
13.942799568;4.709000111;15.365900040;275.000000;0.000000;nan;0.626360;0.889831
12.049400330;4.586200237;15.558199883;275.000000;0.000000;nan;0.781465;0.868644
13.127900124;4.757800102;15.434900284;275.000000;0.000000;nan;0.915540;0.851695
12.878399849;4.392499924;15.608200073;275.000000;0.000000;nan;1.019151;0.855932
13.961500168;4.507100105;15.354000092;275.000000;0.000000;nan;0.554579;0.877119
12.717200279;4.411300182;16.120899200;275.000000;0.000000;nan;1.413830;0.987288
12.884300232;4.277800083;15.802499771;275.000000;0.000000;nan;1.202776;0.894068
13.679100037;4.800099850;15.657199860;275.000000;0.000000;nan;0.896009;0.919492
12.759099960;4.136300087;15.834899902;275.000000;0.000000;nan;1.190620;0.923729
12.174200058;4.885200024;15.618800163;275.000000;0.000000;nan;0.773649;0.885593
12.422699928;4.647900105;15.246999741;275.000000;0.000000;nan;0.511744;0.834746
13.064299583;4.315400124;15.898599625;275.000000;0.000000;nan;1.249480;0.944915
12.639100075;4.289299965;15.308600426;275.000000;0.000000;nan;0.666154;0.877119
12.184499741;5.617700100;15.399999619;275.000000;0.000000;nan;0.505563;0.855932
12.373399734;4.718200207;15.385899544;275.000000;0.000000;nan;0.655996;0.855932
12.492799759;5.260399818;16.013000488;275.000000;0.000000;nan;1.119235;0.953390
13.029199600;4.749700069;15.758500099;275.000000;0.000000;nan;1.201927;0.902542
12.343600273;3.878599882;15.498900414;275.000000;0.000000;nan;0.638110;0.898305
13.778599739;4.914199829;15.745200157;275.000000;0.000000;nan;1.025416;0.949153
11.963700294;4.878600121;16.255599976;275.000000;0.000000;nan;1.301642;0.957627
12.364199638;5.758600235;15.676799774;275.000000;0.000000;nan;0.862041;0.936441
11.787699699;5.589300156;15.555000305;275.000000;0.000000;nan;0.589855;0.885593
12.391400337;6.022099972;15.577199936;275.000000;0.000000;nan;0.965124;0.936441
12.770299911;4.283500195;15.415599823;275.000000;0.000000;nan;0.822748;0.894068
12.087900162;4.931499958;15.579700470;275.000000;0.000000;nan;0.695003;0.864407
12.359399796;5.808100224;15.415100098;275.000000;0.000000;nan;0.717080;0.902542
13.454700470;4.733200073;15.335300446;275.000000;0.000000;nan;0.648414;0.877119
12.942600250;4.653500080;15.607000351;275.000000;0.000000;nan;1.060991;0.889831
13.043299675;4.823200226;15.488200188;275.000000;0.000000;nan;1.031610;0.898305
13.230400085;4.769000053;15.360500336;275.000000;0.000000;nan;0.805976;0.923729
11.975000381;4.868700027;15.780400276;275.000000;0.000000;nan;0.874888;0.911017
11.753899574;4.192399979;15.885700226;275.000000;0.000000;nan;0.890376;0.864407
13.800299644;4.884200096;15.645700455;275.000000;0.000000;nan;0.925507;0.940678
12.991100311;4.553100109;15.422400475;275.000000;0.000000;nan;0.936608;0.868644
11.919699669;5.830999851;15.942099571;275.000000;0.000000;nan;1.026747;0.978814
12.822199821;4.523099899;15.488900185;275.000000;0.000000;nan;0.883688;0.919492
12.857600212;4.435100079;15.430500031;275.000000;0.000000;nan;0.861302;0.864407
13.071100235;4.464900017;15.979599953;275.000000;0.000000;nan;1.312370;0.961864
11.745699883;4.540299892;16.128200531;275.000000;0.000000;nan;1.158147;0.915254
11.158900261;4.756400108;13.939499855;275.000000;0.000000;nan;0.524207;0.822034
10.789199829;4.726600170;14.127099991;275.000000;0.000000;nan;0.617843;0.855932
11.205800056;5.743899822;13.827899933;275.000000;0.000000;nan;0.606967;0.885593
9.467800140;5.782299995;14.338600159;275.000000;0.000000;nan;0.626106;0.826271
9.758000374;5.262000084;14.841099739;275.000000;0.000000;nan;0.413835;0.898305
9.490200043;5.709599972;14.431699753;275.000000;0.000000;nan;0.719932;0.834746
10.905799866;4.748700142;13.791199684;275.000000;0.000000;nan;0.444421;0.834746
11.225399971;4.267000198;13.438699722;275.000000;0.000000;nan;0.312743;0.881356
10.872300148;5.570799828;14.115900040;275.000000;0.000000;nan;0.483804;0.881356
10.457300186;4.815100193;14.093199730;275.000000;0.000000;nan;0.552634;0.822034
10.986300468;5.598999977;13.906599998;275.000000;0.000000;nan;0.463204;0.822034
10.908599854;5.633100033;14.556599617;275.000000;0.000000;nan;0.546424;0.779661
11.010999680;5.795000076;14.947999954;275.000000;0.000000;nan;0.693392;0.881356
11.054900169;5.711999893;13.742899895;275.000000;0.000000;nan;0.496513;0.881356
9.707799911;4.625899792;14.991000175;275.000000;0.000000;nan;0.453574;0.868644
9.663700104;5.552000046;14.213800430;275.000000;0.000000;nan;0.548044;0.838983
9.767200470;5.035999775;14.210499763;275.000000;0.000000;nan;0.183094;0.860169
10.788200378;5.963799953;15.077199936;275.000000;0.000000;nan;0.613805;0.894068
10.742899895;4.729000092;14.017999649;275.000000;0.000000;nan;0.555785;0.817797
9.801099777;5.675700188;14.154100418;275.000000;0.000000;nan;0.380801;0.830508
10.404100418;4.619900227;14.548700333;275.000000;0.000000;nan;0.397201;0.838983
10.987600327;6.021800041;14.553600311;275.000000;0.000000;nan;0.580105;0.826271
11.005100250;4.844299793;14.088899612;275.000000;0.000000;nan;0.528788;0.877119
10.635499954;5.785900116;14.844400406;275.000000;0.000000;nan;0.343706;0.843220
9.567500114;5.850100040;14.520600319;275.000000;0.000000;nan;0.659294;0.894068
11.251799583;5.866399765;13.815699577;275.000000;0.000000;nan;0.630067;0.864407
11.032899857;5.521699905;13.740099907;275.000000;0.000000;nan;0.372373;0.864407
10.688599586;4.913799763;14.102199554;275.000000;0.000000;nan;0.497989;0.817797
10.819199562;5.946800232;14.773300171;275.000000;0.000000;nan;0.441705;0.838983
11.062299728;5.643000126;14.576499939;275.000000;0.000000;nan;0.682597;0.877119
10.817000389;5.878499985;14.636400223;275.000000;0.000000;nan;0.397324;0.877119
10.410099983;4.860199928;14.974200249;275.000000;0.000000;nan;0.502820;0.851695
9.887800217;5.817500114;14.608799934;275.000000;0.000000;nan;0.439843;0.872881
11.264100075;4.354899883;13.158599854;275.000000;0.000000;nan;0.419061;0.834746
10.808500290;4.751299858;13.878700256;275.000000;0.000000;nan;0.463157;0.860169
10.868300438;6.006499767;14.643899918;275.000000;0.000000;nan;0.466727;0.872881
11.103699684;5.734099865;13.894399643;275.000000;0.000000;nan;0.510812;0.881356
10.520799637;4.587699890;14.660499573;275.000000;0.000000;nan;0.514835;0.894068
10.795000076;5.819200039;14.888899803;275.000000;0.000000;nan;0.480579;0.855932
11.005200386;4.793700218;13.896800041;275.000000;0.000000;nan;0.457578;0.771186
10.422200203;4.773399830;14.760999680;275.000000;0.000000;nan;0.398606;0.838983
10.722200394;5.697400093;14.816200256;275.000000;0.000000;nan;0.416650;0.864407
10.542099953;5.904600143;14.925900459;275.000000;0.000000;nan;0.355937;0.868644
10.294500351;4.487199783;14.856399536;275.000000;0.000000;nan;0.437339;0.855932
10.943300247;5.871099949;13.810199738;275.000000;0.000000;nan;0.328222;0.860169
9.592800140;5.899899960;14.616900444;275.000000;0.000000;nan;0.669628;0.911017
10.494099617;4.968400002;14.142200470;275.000000;0.000000;nan;0.581422;0.805085
10.661299706;4.803800106;14.090000153;275.000000;0.000000;nan;0.565075;0.868644
10.303099632;4.865200043;14.012000084;275.000000;0.000000;nan;0.506155;0.838983
9.710800171;5.889900208;14.683799744;275.000000;0.000000;nan;0.605960;0.919492
11.149399757;4.853199959;13.913599968;275.000000;0.000000;nan;0.489226;0.783898
11.048399925;3.872800112;13.129500389;275.000000;0.000000;nan;0.660680;0.813559
10.566900253;5.892600060;15.100299835;275.000000;0.000000;nan;0.528944;0.881356
10.908900261;5.804599762;14.650400162;275.000000;0.000000;nan;0.495931;0.864407
10.304100037;4.491199970;14.672599792;275.000000;0.000000;nan;0.374931;0.843220
11.328800201;4.284299850;13.342599869;275.000000;0.000000;nan;0.245118;0.847458
10.669799805;5.938499928;14.947400093;275.000000;0.000000;nan;0.437376;0.902542
10.503000259;4.680200100;14.581800461;275.000000;0.000000;nan;0.475138;0.877119
11.245900154;5.376900196;14.154199600;275.000000;0.000000;nan;0.622704;0.898305
10.326499939;5.952700138;14.895000458;275.000000;0.000000;nan;0.326334;0.855932
9.598299980;5.804699898;14.376799583;275.000000;0.000000;nan;0.603069;0.822034
10.769000053;5.873499870;13.861800194;275.000000;0.000000;nan;0.150694;0.889831
10.408399582;4.770800114;15.039899826;275.000000;0.000000;nan;0.540439;0.838983
11.045900345;4.855999947;13.987700462;275.000000;0.000000;nan;0.469859;0.817797
10.966600418;5.677400112;14.695699692;275.000000;0.000000;nan;0.589977;0.868644
10.691900253;4.841300011;14.180000305;275.000000;0.000000;nan;0.597995;0.838983
10.794799805;5.669400215;14.580499649;275.000000;0.000000;nan;0.427948;0.843220
10.362099648;4.521200180;14.751799583;275.000000;0.000000;nan;0.422911;0.885593
9.689900398;5.505199909;14.093700409;275.000000;0.000000;nan;0.457374;0.822034
9.951899529;5.903800011;14.605899811;275.000000;0.000000;nan;0.376776;0.881356
9.612899780;5.780399799;14.629300117;275.000000;0.000000;nan;0.676070;0.885593
10.868599892;5.736199856;14.450900078;275.000000;0.000000;nan;0.482185;0.855932
10.404999733;5.177000046;14.753899574;275.000000;0.000000;nan;0.553521;0.851695
10.673800468;4.808800220;13.845299721;275.000000;0.000000;nan;0.432447;0.762712
10.899800301;5.855100155;14.470800400;275.000000;0.000000;nan;0.485186;0.817797
10.412799835;4.937099934;15.077500343;275.000000;0.000000;nan;0.594105;0.860169
11.009099960;5.697700024;13.581899643;275.000000;0.000000;nan;0.532097;0.851695
10.808600426;4.815199852;14.176799774;275.000000;0.000000;nan;0.591964;0.885593
11.120100021;4.061900139;13.467300415;275.000000;0.000000;nan;0.431749;0.885593
9.699999809;4.461200237;14.555000305;275.000000;0.000000;nan;0.365025;0.843220
9.726499557;5.845300198;14.585300446;275.000000;0.000000;nan;0.545076;0.894068
11.188400269;4.138700008;13.147199631;275.000000;0.000000;nan;0.459836;0.826271
9.619000435;5.438700199;14.023799896;275.000000;0.000000;nan;0.458342;0.855932
11.057900429;5.864200115;13.802800179;275.000000;0.000000;nan;0.441605;0.881356
9.662500381;4.238999844;14.564700127;275.000000;0.000000;nan;0.341750;0.813559
10.830300331;4.818900108;13.976699829;275.000000;0.000000;nan;0.448784;0.813559
9.876899719;4.420700073;14.863699913;275.000000;0.000000;nan;0.386169;0.881356
10.901599884;3.870300055;13.180600166;275.000000;0.000000;nan;0.765254;0.868644
9.495599747;5.730299950;14.604599953;275.000000;0.000000;nan;0.769248;0.868644
9.803700447;5.397399902;14.073200226;275.000000;0.000000;nan;0.498570;0.855932
9.791399956;5.664299965;14.301400185;275.000000;0.000000;nan;0.438997;0.881356
10.763400078;5.621900082;14.669500351;275.000000;0.000000;nan;0.434603;0.826271
7.762700081;5.845099926;10.707799911;275.000000;0.000000;nan;0.210924;0.843220
7.748600006;5.070199966;10.723600388;275.000000;0.000000;nan;0.587247;0.796610
7.718299866;3.675800085;11.228300095;275.000000;0.000000;nan;0.435348;0.864407
8.036199570;4.591100216;10.504699707;275.000000;0.000000;nan;0.235876;0.745763
8.965800285;5.712100029;10.917099953;275.000000;0.000000;nan;0.646273;0.834746
7.695799828;4.969900131;10.722499847;275.000000;0.000000;nan;0.584176;0.771186
7.553500175;4.482500076;10.758799553;275.000000;0.000000;nan;0.414727;0.817797
7.878900051;5.217100143;11.787099838;275.000000;0.000000;nan;1.015703;0.860169
7.480500221;5.717500210;12.079600334;275.000000;0.000000;nan;0.957395;0.889831
8.716199875;4.993400097;10.935400009;275.000000;0.000000;nan;0.169980;0.868644
8.200400352;5.606500149;11.312500000;275.000000;0.000000;nan;0.452149;0.796610
7.553199768;5.196499825;10.508399963;275.000000;0.000000;nan;0.391323;0.805085
8.965999603;5.430600166;11.126799583;275.000000;0.000000;nan;0.301397;0.911017
7.741799831;4.911900043;11.040399551;275.000000;0.000000;nan;0.513000;0.800847
7.916800022;4.638899803;10.557000160;275.000000;0.000000;nan;0.258427;0.754237
8.314399719;5.499800205;11.178700447;275.000000;0.000000;nan;0.527084;0.813559
8.396699905;5.054699898;10.522700310;275.000000;0.000000;nan;0.462490;0.775424
8.304100037;4.861400127;10.978899956;275.000000;0.000000;nan;0.363249;0.822034
7.715300083;4.725200176;10.994400024;275.000000;0.000000;nan;0.362409;0.847458
8.741999626;5.988100052;11.452799797;275.000000;0.000000;nan;0.377591;0.830508
7.481800079;5.301300049;10.622599602;275.000000;0.000000;nan;0.367278;0.775424
7.486100197;4.574900150;10.732199669;275.000000;0.000000;nan;0.502816;0.766949
7.923600197;5.754499912;11.120400429;275.000000;0.000000;nan;0.289464;0.805085
7.965300083;5.844399929;11.134400368;275.000000;0.000000;nan;0.194045;0.805085
8.053199768;5.830200195;11.064900398;275.000000;0.000000;nan;0.163777;0.817797
8.330400467;5.336999893;11.163599968;275.000000;0.000000;nan;0.633580;0.788136
7.661200047;4.618500233;10.507300377;275.000000;0.000000;nan;0.415975;0.766949
8.218700409;5.634399891;11.014100075;275.000000;0.000000;nan;0.352168;0.838983
7.873199940;4.505199909;10.574799538;275.000000;0.000000;nan;0.169389;0.830508
8.332200050;5.068799973;10.634799957;275.000000;0.000000;nan;0.480161;0.855932
8.312000275;5.776899815;11.552499771;275.000000;0.000000;nan;0.406203;0.809322
9.061499596;5.740399837;10.896200180;275.000000;0.000000;nan;0.679048;0.898305
8.086600304;5.728199959;11.022700310;275.000000;0.000000;nan;0.260117;0.822034
8.350000381;5.161399841;10.549200058;275.000000;0.000000;nan;0.525417;0.851695
8.167499542;4.821199894;10.479999542;275.000000;0.000000;nan;0.411056;0.745763
8.338399887;5.182700157;11.728199959;275.000000;0.000000;nan;0.657215;0.885593
7.638700008;4.741799831;10.606300354;275.000000;0.000000;nan;0.487129;0.724576
7.975399971;4.607800007;10.634300232;275.000000;0.000000;nan;0.200040;0.758475
8.753899574;5.767300129;10.913900375;275.000000;0.000000;nan;0.599486;0.805085
8.452400208;5.124400139;10.763299942;275.000000;0.000000;nan;0.411005;0.817797
7.613399982;5.170700073;10.648200035;275.000000;0.000000;nan;0.462682;0.750000
8.331700325;4.721199989;10.573399544;275.000000;0.000000;nan;0.256760;0.809322
8.807200432;5.357600212;10.961999893;275.000000;0.000000;nan;0.416063;0.822034
8.465900421;5.776999950;11.612000465;275.000000;0.000000;nan;0.471378;0.796610
7.390500069;5.746200085;12.024399757;275.000000;0.000000;nan;1.056876;0.894068
7.520199776;4.439799786;10.623200417;275.000000;0.000000;nan;0.450318;0.733051
8.244400024;4.551599979;10.623800278;275.000000;0.000000;nan;0.210932;0.838983
8.966400146;5.549200058;11.124699593;275.000000;0.000000;nan;0.409945;0.834746
7.997300148;4.702600002;10.527999878;275.000000;0.000000;nan;0.317240;0.754237
7.861700058;3.785200119;11.294599533;275.000000;0.000000;nan;0.428191;0.872881
8.379899979;5.881299973;11.735300064;275.000000;0.000000;nan;0.494246;0.877119
8.077199936;4.643199921;11.023400307;275.000000;0.000000;nan;0.246855;0.851695
7.689000130;4.808499813;10.794300079;275.000000;0.000000;nan;0.443105;0.783898
7.875500202;4.867499828;10.871800423;275.000000;0.000000;nan;0.401668;0.817797
7.577499866;5.640399933;11.615200043;275.000000;0.000000;nan;0.802107;0.813559
7.713300228;5.930500031;10.598699570;275.000000;0.000000;nan;0.226747;0.843220
7.593500137;4.606400013;10.838600159;275.000000;0.000000;nan;0.386298;0.711864
8.452699661;5.387100220;11.329000473;275.000000;0.000000;nan;0.606611;0.851695
8.489000320;5.504199982;10.975999832;275.000000;0.000000;nan;0.484325;0.843220
7.770899773;4.560999870;10.477000237;275.000000;0.000000;nan;0.318038;0.737288
8.173600197;5.506899834;10.847499847;275.000000;0.000000;nan;0.257041;0.775424
8.198399544;5.004700184;10.493100166;275.000000;0.000000;nan;0.459487;0.737288
7.938199997;4.946000099;10.884499550;275.000000;0.000000;nan;0.469410;0.822034
7.514599800;4.646100044;11.049400330;275.000000;0.000000;nan;0.493078;0.830508
8.877200127;5.578000069;11.180899620;275.000000;0.000000;nan;0.445245;0.834746
7.670000076;4.717999935;10.832799911;275.000000;0.000000;nan;0.382113;0.813559
7.527200222;4.749599934;10.644100189;275.000000;0.000000;nan;0.561366;0.779661
8.744899750;5.481999874;11.347599983;275.000000;0.000000;nan;0.429696;0.885593
8.156700134;5.582499981;11.146100044;275.000000;0.000000;nan;0.421118;0.762712
8.077300072;4.772999763;10.594499588;275.000000;0.000000;nan;0.377760;0.754237
8.612400055;5.594600201;11.341099739;275.000000;0.000000;nan;0.558330;0.843220
7.532700062;4.870100021;10.965299606;275.000000;0.000000;nan;0.584395;0.826271
8.219699860;4.688799858;10.477700233;275.000000;0.000000;nan;0.329346;0.762712
7.989799976;4.757699966;10.985600471;275.000000;0.000000;nan;0.302702;0.834746
7.682400227;4.547299862;10.898300171;275.000000;0.000000;nan;0.277810;0.838983
8.731399536;5.359300137;10.594300270;275.000000;0.000000;nan;0.492237;0.872881
8.182000160;4.679299831;10.667499542;275.000000;0.000000;nan;0.331123;0.826271
8.160799980;4.703499794;10.563099861;275.000000;0.000000;nan;0.349987;0.766949
7.944300175;3.739399910;11.250300407;275.000000;0.000000;nan;0.415847;0.838983
8.643199921;5.927400112;11.650400162;275.000000;0.000000;nan;0.469649;0.855932
7.771800041;5.719699860;11.612000465;275.000000;0.000000;nan;0.656652;0.843220
7.995999813;3.802400112;11.187299728;275.000000;0.000000;nan;0.331281;0.877119
8.149299622;4.935400009;10.632100105;275.000000;0.000000;nan;0.524871;0.762712
7.594099998;5.097700119;10.564100266;275.000000;0.000000;nan;0.492503;0.758475
7.743500233;5.237999916;11.293399811;275.000000;0.000000;nan;0.803737;0.838983
8.183199883;5.343200207;11.132900238;275.000000;0.000000;nan;0.584442;0.745763
7.886600018;4.627500057;10.757200241;275.000000;0.000000;nan;0.201318;0.813559
7.352000237;5.832900047;12.084500313;275.000000;0.000000;nan;1.047519;0.894068
8.921500206;5.128200054;10.900400162;275.000000;0.000000;nan;0.211262;0.855932
8.077300072;4.931399822;10.910300255;275.000000;0.000000;nan;0.466445;0.843220
7.585000038;4.596300125;10.982000351;275.000000;0.000000;nan;0.394643;0.847458
7.767700195;4.971300125;10.478199959;275.000000;0.000000;nan;0.588048;0.741525
8.876299858;5.731999874;11.081100464;275.000000;0.000000;nan;0.611771;0.851695
8.469099998;5.353099823;11.175900459;275.000000;0.000000;nan;0.561615;0.838983
8.401200294;5.566599846;11.469200134;275.000000;0.000000;nan;0.538057;0.843220
7.753399849;3.840199947;11.182399750;275.000000;0.000000;nan;0.422099;0.885593
7.641499996;4.892300129;10.857700348;275.000000;0.000000;nan;0.528215;0.855932
7.932000160;4.783500195;10.715600014;275.000000;0.000000;nan;0.341553;0.792373
8.134599686;5.483900070;11.180999756;275.000000;0.000000;nan;0.519466;0.800847
8.306300163;5.011799812;10.541099548;275.000000;0.000000;nan;0.477031;0.779661
7.519700050;4.584099770;10.606300354;275.000000;0.000000;nan;0.505361;0.775424
7.645599842;5.433599949;11.776599884;275.000000;0.000000;nan;0.979594;0.898305
7.742400169;5.130400181;11.852700233;275.000000;0.000000;nan;0.956774;0.889831
8.122900009;5.552800179;11.034299850;275.000000;0.000000;nan;0.406094;0.813559
8.216199875;4.520999908;10.474100113;275.000000;0.000000;nan;0.240244;0.800847
8.546600342;5.554699898;11.223699570;275.000000;0.000000;nan;0.551778;0.800847
7.839399815;5.882599831;11.141699791;275.000000;0.000000;nan;0.271588;0.766949
8.353799820;5.360599995;11.303600311;275.000000;0.000000;nan;0.665861;0.796610
7.607999802;5.823800087;10.871899605;275.000000;0.000000;nan;0.262025;0.788136
8.507499695;5.303699970;11.291099548;275.000000;0.000000;nan;0.510156;0.847458
7.861800194;4.934299946;10.479999542;275.000000;0.000000;nan;0.560586;0.741525
7.578599930;4.585899830;10.688199997;275.000000;0.000000;nan;0.432069;0.762712
8.342300415;4.940000057;10.858699799;275.000000;0.000000;nan;0.386226;0.822034
7.947700024;5.925899982;11.592800140;275.000000;0.000000;nan;0.505216;0.830508
7.708899975;3.755500078;11.314900398;275.000000;0.000000;nan;0.391471;0.864407
8.144000053;5.129300117;11.580300331;275.000000;0.000000;nan;0.829165;0.830508
8.234000206;4.891200066;10.599900246;275.000000;0.000000;nan;0.433938;0.737288
8.163100243;4.736199856;10.800600052;275.000000;0.000000;nan;0.323427;0.838983
7.489200115;5.084700108;10.740599632;275.000000;0.000000;nan;0.594340;0.796610
8.036000252;4.680500031;10.795000076;275.000000;0.000000;nan;0.221551;0.834746
7.762300014;5.625500202;11.928700447;275.000000;0.000000;nan;0.959183;0.894068
8.416199684;4.992700100;10.618100166;275.000000;0.000000;nan;0.374394;0.783898
7.605999947;5.442200184;12.098600388;275.000000;0.000000;nan;0.890237;0.923729
8.279700279;5.102700233;11.687500000;275.000000;0.000000;nan;0.698566;0.847458
7.395899773;5.350200176;11.709099770;275.000000;0.000000;nan;0.897474;0.855932
7.639500141;4.789599895;10.973899841;275.000000;0.000000;nan;0.454545;0.817797
7.574200153;3.749099970;11.027500153;275.000000;0.000000;nan;0.450878;0.809322
7.467899799;4.685999870;10.887000084;275.000000;0.000000;nan;0.528614;0.783898
8.253299713;5.428100109;11.350999832;275.000000;0.000000;nan;0.627249;0.754237
7.910200119;4.961100101;11.036999702;275.000000;0.000000;nan;0.514849;0.830508
8.264800072;5.697299957;11.456399918;275.000000;0.000000;nan;0.407478;0.813559
8.064800262;4.723100185;10.922300339;275.000000;0.000000;nan;0.266161;0.851695
8.275799751;4.864200115;10.511899948;275.000000;0.000000;nan;0.403180;0.826271
7.865799904;5.212100029;10.582400322;275.000000;0.000000;nan;0.431865;0.834746
8.805899620;5.497900009;11.209600449;275.000000;0.000000;nan;0.402329;0.847458
8.650099754;5.491799831;11.280099869;275.000000;0.000000;nan;0.499811;0.855932
8.055700302;4.770400047;10.480699539;275.000000;0.000000;nan;0.403331;0.750000
8.885800362;5.905600071;11.389300346;275.000000;0.000000;nan;0.511825;0.843220
7.897200108;3.927500010;11.049099922;275.000000;0.000000;nan;0.251563;0.822034
7.624199867;4.675000191;10.705400467;275.000000;0.000000;nan;0.426120;0.826271
7.759200096;5.845099926;11.772899628;275.000000;0.000000;nan;0.758437;0.877119
7.494800091;4.595099926;10.854100227;275.000000;0.000000;nan;0.473364;0.792373
8.120400429;4.616199970;10.604399681;275.000000;0.000000;nan;0.247728;0.745763
9.626999855;3.817500114;12.315799713;275.000000;0.000000;nan;0.417448;0.872881
8.386199951;4.650199890;10.524999619;275.000000;0.000000;nan;0.189148;0.817797
8.245800018;4.357900143;10.512999535;275.000000;0.000000;nan;0.119571;0.868644
7.440000057;5.532000065;11.781999588;275.000000;0.000000;nan;1.043310;0.864407
8.871199608;5.361299992;11.055399895;275.000000;0.000000;nan;0.322090;0.838983
7.377399921;5.881700039;10.954000473;275.000000;0.000000;nan;0.411771;0.817797
7.672399998;5.229599953;10.755999565;275.000000;0.000000;nan;0.449569;0.813559
8.155699730;5.181799889;11.882499695;275.000000;0.000000;nan;0.739445;0.911017
8.991499901;5.467199802;11.249500275;275.000000;0.000000;nan;0.303128;0.894068
8.793700218;5.165599823;10.876399994;275.000000;0.000000;nan;0.238275;0.851695
7.600900173;3.783799887;10.838299751;275.000000;0.000000;nan;0.432295;0.805085
7.462500095;4.962299824;10.827199936;275.000000;0.000000;nan;0.699215;0.822034
7.808499813;3.900899887;11.333299637;275.000000;0.000000;nan;0.392914;0.919492
8.536999702;5.789599895;11.119500160;275.000000;0.000000;nan;0.372292;0.838983
7.772699833;5.148700237;11.006899834;275.000000;0.000000;nan;0.665910;0.809322
8.223500252;4.616600037;10.547499657;275.000000;0.000000;nan;0.268030;0.788136
8.704199791;5.949200153;11.894900322;275.000000;0.000000;nan;0.695577;0.919492
8.253899574;4.903500080;10.760199547;275.000000;0.000000;nan;0.436621;0.779661
7.750800133;5.215000153;11.192399979;275.000000;0.000000;nan;0.738326;0.788136
7.544600010;4.766900063;10.759300232;275.000000;0.000000;nan;0.523166;0.809322
8.005000114;5.526700020;11.302599907;275.000000;0.000000;nan;0.514815;0.822034
8.361200333;4.575500011;10.625100136;275.000000;0.000000;nan;0.133881;0.830508
7.483799934;4.742499828;10.997099876;275.000000;0.000000;nan;0.549747;0.830508
8.366900444;4.544000149;10.510499954;275.000000;0.000000;nan;0.122796;0.843220
8.327500343;5.404900074;11.768699646;275.000000;0.000000;nan;0.733690;0.902542
8.281999588;4.623600006;10.737999916;275.000000;0.000000;nan;0.247804;0.843220
7.615699768;5.559299946;11.877300262;275.000000;0.000000;nan;1.003464;0.889831
9.021300316;5.539400101;11.033300400;275.000000;0.000000;nan;0.435278;0.864407
8.486100197;5.865799904;11.725999832;275.000000;0.000000;nan;0.506639;0.872881
8.526599884;5.645800114;11.149800301;275.000000;0.000000;nan;0.471435;0.834746
8.259699821;5.444200039;11.249899864;275.000000;0.000000;nan;0.587257;0.830508
7.607399940;5.278900146;10.664199829;275.000000;0.000000;nan;0.367907;0.817797
8.923100471;5.368500233;11.207400322;275.000000;0.000000;nan;0.233512;0.898305
7.751599789;4.771599770;11.095199585;275.000000;0.000000;nan;0.414267;0.864407
7.874100208;4.942200184;11.150300026;275.000000;0.000000;nan;0.545452;0.843220
7.749499798;5.160099983;10.467399597;275.000000;0.000000;nan;0.401242;0.792373
8.821399689;5.727600098;11.687399864;275.000000;0.000000;nan;0.667756;0.898305
8.736700058;5.767199993;12.671299934;275.000000;0.000000;nan;0.662756;0.898305
8.880200386;5.488200188;11.128399849;275.000000;0.000000;nan;0.377255;0.826271
8.502499580;5.487400055;11.081299782;275.000000;0.000000;nan;0.574803;0.885593
8.704999924;5.389500141;10.703599930;275.000000;0.000000;nan;0.487765;0.822034
7.828899860;5.401299953;10.486200333;275.000000;0.000000;nan;0.229734;0.838983
8.419099808;5.035200119;10.726699829;275.000000;0.000000;nan;0.384111;0.813559
8.249899864;4.774499893;10.766599655;275.000000;0.000000;nan;0.370695;0.826271
7.695000172;5.703999996;11.340700150;275.000000;0.000000;nan;0.540235;0.817797
8.096099854;5.695300102;11.504099846;275.000000;0.000000;nan;0.478602;0.822034
7.751999855;4.104899883;11.320899963;275.000000;0.000000;nan;0.357721;0.894068
7.696700096;5.780900002;11.910300255;275.000000;0.000000;nan;0.919658;0.872881
7.505000114;4.526700020;10.495200157;275.000000;0.000000;nan;0.469011;0.766949
7.926199913;5.820300102;11.269300461;275.000000;0.000000;nan;0.287551;0.864407
7.787600040;4.977200031;10.583000183;275.000000;0.000000;nan;0.601419;0.771186
8.380299568;5.268799782;11.760100365;275.000000;0.000000;nan;0.641385;0.911017
8.547900200;5.385099888;11.023799896;275.000000;0.000000;nan;0.553381;0.817797
8.184100151;5.698999882;11.102399826;275.000000;0.000000;nan;0.311500;0.788136
8.740599632;5.575300217;11.385999680;275.000000;0.000000;nan;0.502188;0.855932
12.948499680;-1.700799942;8.039299965;275.000000;0.000000;nan;0.126136;0.881356
7.417900085;4.361999989;10.414500237;275.000000;0.000000;nan;0.273609;0.783898
6.703800201;3.842499971;11.886899948;275.000000;0.000000;nan;0.324715;0.915254
7.143099785;5.237800121;10.541600227;275.000000;0.000000;nan;0.621371;0.762712
6.588399887;3.848099947;11.676500320;275.000000;0.000000;nan;0.253211;0.881356
7.234300137;4.633100033;10.660499573;275.000000;0.000000;nan;0.563823;0.809322
6.721099854;3.834000111;11.770099640;275.000000;0.000000;nan;0.306391;0.864407
7.216499805;4.732900143;10.463800430;275.000000;0.000000;nan;0.399930;0.771186
7.078499794;3.950200081;10.710399628;275.000000;0.000000;nan;0.248023;0.817797
7.332600117;4.759200096;10.768099785;275.000000;0.000000;nan;0.694548;0.745763
7.412300110;4.408100128;10.540800095;275.000000;0.000000;nan;0.339406;0.754237
6.385399818;3.684000015;11.941800117;275.000000;0.000000;nan;0.173672;0.889831
7.001999855;4.590799809;10.555999756;275.000000;0.000000;nan;0.511650;0.771186
7.324100018;5.146399975;10.471799850;275.000000;0.000000;nan;0.535022;0.766949
7.193600178;4.806700230;10.547300339;275.000000;0.000000;nan;0.498038;0.766949
5.574399948;4.257100105;10.809399605;275.000000;0.000000;nan;0.607475;0.868644
7.161799908;5.618000031;11.806400299;275.000000;0.000000;nan;1.094265;0.889831
7.132500172;5.002799988;10.569399834;275.000000;0.000000;nan;0.607023;0.830508
7.171800137;5.139599800;10.474200249;275.000000;0.000000;nan;0.625375;0.796610
7.219799995;4.885300159;10.720299721;275.000000;0.000000;nan;0.687340;0.741525
7.106800079;4.961100101;11.029100418;275.000000;0.000000;nan;0.754057;0.847458
6.049600124;3.681099892;10.876999855;275.000000;0.000000;nan;0.444827;0.826271
7.185100079;4.738399982;10.756999969;275.000000;0.000000;nan;0.690463;0.775424
7.078400135;4.736299992;10.420399666;275.000000;0.000000;nan;0.374688;0.775424
7.378499985;4.694699764;10.829899788;275.000000;0.000000;nan;0.617842;0.783898
7.089700222;4.967500210;11.147800446;275.000000;0.000000;nan;0.673676;0.872881
7.147399902;3.816499949;11.055000305;275.000000;0.000000;nan;0.154657;0.872881
7.124100208;4.881499767;10.775500298;275.000000;0.000000;nan;0.741516;0.817797
6.758299828;4.865499973;10.840600014;275.000000;0.000000;nan;0.713822;0.826271
7.077799797;4.081699848;11.223400116;275.000000;0.000000;nan;0.142284;0.911017
6.711800098;4.860499859;10.695099831;275.000000;0.000000;nan;0.753726;0.796610
7.310699940;4.913599968;10.759400368;275.000000;0.000000;nan;0.742323;0.750000
7.281400204;5.500899792;10.620200157;275.000000;0.000000;nan;0.354025;0.813559
5.859700203;4.044199944;10.851300240;275.000000;0.000000;nan;0.578079;0.855932
7.306700230;4.725500107;10.647500038;275.000000;0.000000;nan;0.590853;0.750000
7.274400234;5.248000145;10.628299713;275.000000;0.000000;nan;0.528856;0.813559
7.040400028;4.557000160;10.435299873;275.000000;0.000000;nan;0.383513;0.741525
7.199500084;5.416100025;10.490699768;275.000000;0.000000;nan;0.483195;0.834746
6.490799904;3.561100006;12.176899910;275.000000;0.000000;nan;0.331881;0.898305
7.308199883;4.512700081;10.649000168;275.000000;0.000000;nan;0.453896;0.762712
7.285200119;5.685100079;11.329799652;275.000000;0.000000;nan;0.758683;0.868644
6.481900215;3.693000078;12.242099762;275.000000;0.000000;nan;0.418767;0.927966
7.396500111;4.877500057;10.903200150;275.000000;0.000000;nan;0.688992;0.796610
7.245900154;4.848499775;10.979900360;275.000000;0.000000;nan;0.735078;0.834746
5.514800072;4.878699780;11.083399773;275.000000;0.000000;nan;0.670993;0.944915
7.327300072;5.275400162;10.711099625;275.000000;0.000000;nan;0.491950;0.817797
7.417699814;4.435400009;11.685000420;275.000000;0.000000;nan;0.344529;0.936441
7.347300053;5.227200031;11.684000015;275.000000;0.000000;nan;0.765276;0.838983
6.219799995;3.740400076;10.383700371;275.000000;0.000000;nan;0.350566;0.805085
7.262700081;5.051400185;10.536600113;275.000000;0.000000;nan;0.611165;0.750000
7.384600163;4.510000229;10.728799820;275.000000;0.000000;nan;0.508191;0.792373
7.086699963;5.206099987;11.372099876;275.000000;0.000000;nan;0.738467;0.868644
7.333799839;5.263800144;10.468199730;275.000000;0.000000;nan;0.444989;0.762712
7.408299923;4.831399918;10.788299561;275.000000;0.000000;nan;0.661872;0.771186
5.933400154;5.591700077;10.789299965;275.000000;0.000000;nan;0.156622;0.885593
7.181600094;5.476799965;11.475600243;275.000000;0.000000;nan;0.963219;0.847458
7.042799950;4.749100208;10.567299843;275.000000;0.000000;nan;0.525549;0.762712
7.148900032;5.782299995;10.700400352;275.000000;0.000000;nan;0.437747;0.830508
7.069399834;3.869800091;11.097999573;275.000000;0.000000;nan;0.158642;0.940678
7.401000023;5.455399990;10.562100410;275.000000;0.000000;nan;0.289174;0.783898
7.439499855;4.017799854;11.094900131;275.000000;0.000000;nan;0.420483;0.851695
7.386000156;4.656700134;10.617799759;275.000000;0.000000;nan;0.573001;0.771186
6.195199966;3.788800001;10.538100243;275.000000;0.000000;nan;0.340263;0.826271
7.200200081;3.912300110;10.689800262;275.000000;0.000000;nan;0.346838;0.800847
5.581799984;4.795899868;11.073300362;275.000000;0.000000;nan;0.662783;0.885593
6.921800137;5.852300167;10.853500366;275.000000;0.000000;nan;0.704134;0.855932
7.052599907;5.112500191;10.607000351;275.000000;0.000000;nan;0.713301;0.771186
7.087500095;4.816800117;10.699799538;275.000000;0.000000;nan;0.656601;0.830508
7.452799797;5.152599812;10.463899612;275.000000;0.000000;nan;0.457378;0.733051
7.031000137;5.817599773;11.208499908;275.000000;0.000000;nan;0.806625;0.834746
7.157199860;5.057000160;10.700900078;275.000000;0.000000;nan;0.744800;0.783898
7.269000053;5.206900120;10.774399757;275.000000;0.000000;nan;0.593009;0.851695
7.124000072;4.937799931;10.929699898;275.000000;0.000000;nan;0.805926;0.805085
6.066299915;3.990700006;11.321700096;275.000000;0.000000;nan;0.411630;0.923729
5.856699944;5.595399857;10.665399551;275.000000;0.000000;nan;0.154307;0.885593
7.015399933;5.370500088;10.454099655;275.000000;0.000000;nan;0.667575;0.822034
7.230899811;4.796500206;10.836899757;275.000000;0.000000;nan;0.778647;0.843220
6.072800159;4.087100029;11.376000404;275.000000;0.000000;nan;0.341143;0.927966
7.418200016;4.701300144;11.063300133;275.000000;0.000000;nan;0.602835;0.855932
7.106299877;5.341499805;10.494299889;275.000000;0.000000;nan;0.597377;0.792373
7.067599773;3.820400000;10.498600006;275.000000;0.000000;nan;0.257425;0.813559
7.375899792;4.804500103;11.040800095;275.000000;0.000000;nan;0.680287;0.826271
7.468400002;4.703499794;10.720399857;275.000000;0.000000;nan;0.564651;0.788136
6.730500221;5.842700005;10.451100349;275.000000;0.000000;nan;0.660624;0.860169
7.019199848;5.854199886;11.380100250;275.000000;0.000000;nan;0.948909;0.911017
7.077300072;4.042099953;10.762999535;275.000000;0.000000;nan;0.249877;0.860169
7.156799793;4.997799873;10.790300369;275.000000;0.000000;nan;0.795029;0.788136
7.226600170;4.665800095;10.834199905;275.000000;0.000000;nan;0.685286;0.775424
7.097000122;5.837200165;10.818300247;275.000000;0.000000;nan;0.527735;0.822034
7.431499958;5.210000038;10.557800293;275.000000;0.000000;nan;0.447007;0.754237
7.279399872;5.136499882;10.616100311;275.000000;0.000000;nan;0.605962;0.813559
6.126599789;4.962299824;10.648400307;275.000000;0.000000;nan;0.350078;0.817797
5.732299805;4.348599911;10.717200279;275.000000;0.000000;nan;0.541030;0.851695
7.045300007;4.908800125;10.703800201;275.000000;0.000000;nan;0.695001;0.809322
7.106200218;4.670100212;10.733799934;275.000000;0.000000;nan;0.649989;0.792373
6.376999855;5.224199772;11.122099876;275.000000;0.000000;nan;0.518430;0.830508
6.097799778;4.006400108;10.490799904;275.000000;0.000000;nan;0.513407;0.855932
7.288099766;5.860799789;11.021699905;275.000000;0.000000;nan;0.508134;0.813559
6.899600029;4.007199764;10.723299980;275.000000;0.000000;nan;0.153147;0.838983
6.866000175;5.344900131;10.477800369;275.000000;0.000000;nan;0.740429;0.847458
7.250299931;5.258200169;10.896200180;275.000000;0.000000;nan;0.608278;0.838983
6.527400017;3.988399982;10.440899849;275.000000;0.000000;nan;0.248466;0.830508
7.196100235;5.335599899;10.666999817;275.000000;0.000000;nan;0.525491;0.860169
7.202199936;4.863599777;11.172599792;275.000000;0.000000;nan;0.607000;0.830508
6.876800060;4.845799923;10.522899628;275.000000;0.000000;nan;0.578472;0.805085
7.157999992;3.928499937;10.794400215;275.000000;0.000000;nan;0.281943;0.838983
6.646200180;3.742000103;11.789099693;275.000000;0.000000;nan;0.192278;0.881356
7.226500034;5.499300003;11.811499596;275.000000;0.000000;nan;0.990665;0.889831
7.416200161;4.217199802;11.444399834;275.000000;0.000000;nan;0.386718;0.889831
7.299600124;4.585199833;10.808600426;275.000000;0.000000;nan;0.605355;0.783898
7.083300114;4.960100174;10.431799889;275.000000;0.000000;nan;0.479686;0.737288
6.119800091;4.133600235;11.293899536;275.000000;0.000000;nan;0.271487;0.915254
7.395999908;5.132800102;10.851699829;275.000000;0.000000;nan;0.624066;0.834746
7.253499985;5.624100208;11.516400337;275.000000;0.000000;nan;0.947014;0.885593
7.179399967;4.920800209;11.289400101;275.000000;0.000000;nan;0.571888;0.860169
6.816199780;5.128600121;10.670700073;275.000000;0.000000;nan;0.738681;0.847458
7.081900120;5.668399811;10.685600281;275.000000;0.000000;nan;0.506236;0.830508
6.882100105;4.772699833;10.616900444;275.000000;0.000000;nan;0.635873;0.762712
6.886600018;4.554500103;10.408699989;275.000000;0.000000;nan;0.446654;0.771186
6.045199871;5.189599991;10.901499748;275.000000;0.000000;nan;0.264697;0.838983
5.960499763;3.542200089;11.046199799;275.000000;0.000000;nan;0.533957;0.864407
6.707099915;4.956900120;10.797900200;275.000000;0.000000;nan;0.752341;0.771186
7.049900055;5.262400150;10.572199821;275.000000;0.000000;nan;0.682136;0.779661
7.313399792;4.415900230;11.672699928;275.000000;0.000000;nan;0.243180;0.881356
7.307899952;4.874499798;11.110300064;275.000000;0.000000;nan;0.687759;0.838983
5.989500046;5.462500095;10.876500130;275.000000;0.000000;nan;0.171609;0.868644
7.257299900;4.660099983;10.522800446;275.000000;0.000000;nan;0.455281;0.724576
6.037300110;5.316500187;11.034700394;275.000000;0.000000;nan;0.328782;0.915254
7.340600014;5.433700085;11.209300041;275.000000;0.000000;nan;0.683646;0.872881
5.916100025;3.566999912;11.734800339;275.000000;0.000000;nan;0.548197;0.868644
6.092000008;5.153200150;10.809200287;275.000000;0.000000;nan;0.270987;0.813559
7.136700153;3.818399906;10.861800194;275.000000;0.000000;nan;0.220167;0.864407
7.193299770;5.654500008;11.138099670;275.000000;0.000000;nan;0.642855;0.889831
7.318600178;5.429399967;11.602000237;275.000000;0.000000;nan;0.944388;0.851695
12.605999947;4.876100063;14.995699883;275.000000;0.000000;nan;0.464565;0.851695
12.470800400;4.590099812;15.051500320;275.000000;0.000000;nan;0.336813;0.830508
13.402199745;5.212399960;14.388899803;275.000000;0.000000;nan;0.807320;0.872881
13.959500313;5.071499825;14.834199905;275.000000;0.000000;nan;0.605210;0.826271
13.533300400;5.069399834;14.311599731;275.000000;0.000000;nan;0.630433;0.860169
13.257399559;3.968600035;14.878000259;275.000000;0.000000;nan;0.655887;0.847458
12.590399742;4.416900158;15.000000000;275.000000;0.000000;nan;0.373322;0.805085
12.385199547;4.723000050;15.120100021;275.000000;0.000000;nan;0.400401;0.817797
13.815699577;4.369800091;15.078399658;275.000000;0.000000;nan;0.239179;0.796610
12.837400436;5.100800037;15.170399666;275.000000;0.000000;nan;0.827095;0.830508
13.482899666;5.298200130;14.472299576;275.000000;0.000000;nan;0.825341;0.889831
12.236800194;4.731500149;15.214699745;275.000000;0.000000;nan;0.482492;0.838983
13.053299904;5.047599792;15.092700005;275.000000;0.000000;nan;0.893701;0.868644
13.983099937;4.346199989;15.219900131;275.000000;0.000000;nan;0.442126;0.847458
12.026499748;5.454599857;15.139499664;275.000000;0.000000;nan;0.162044;0.889831
12.294099808;5.170899868;15.163800240;275.000000;0.000000;nan;0.400325;0.834746
13.742699623;5.342100143;14.630800247;275.000000;0.000000;nan;0.821119;0.872881
12.638999939;4.342999935;15.186900139;275.000000;0.000000;nan;0.554727;0.838983
13.975099564;4.174099922;15.104499817;275.000000;0.000000;nan;0.414268;0.809322
13.895500183;4.925799847;14.840100288;275.000000;0.000000;nan;0.456445;0.847458
13.173399925;4.038599968;15.164199829;275.000000;0.000000;nan;0.746941;0.830508
13.151100159;4.989500046;15.122799873;275.000000;0.000000;nan;0.870924;0.855932
13.903499603;4.249100208;15.256400108;275.000000;0.000000;nan;0.461761;0.885593
13.561400414;5.081900120;15.152500153;275.000000;0.000000;nan;0.754413;0.877119
13.250000000;4.286600113;15.204299927;275.000000;0.000000;nan;0.617236;0.898305
13.194399834;4.125599861;15.252099991;275.000000;0.000000;nan;0.734788;0.822034
13.866499901;4.977300167;14.717499733;275.000000;0.000000;nan;0.476890;0.800847
13.434300423;5.374100208;14.421999931;275.000000;0.000000;nan;0.818735;0.898305
12.602199554;4.336599827;15.064900398;275.000000;0.000000;nan;0.447283;0.838983
13.132800102;5.157800198;15.167200089;275.000000;0.000000;nan;1.013714;0.906780
12.441900253;4.616700172;14.924599648;275.000000;0.000000;nan;0.234795;0.788136
13.455200195;5.125100136;14.367699623;275.000000;0.000000;nan;0.719269;0.881356
13.094699860;4.119400024;14.906700134;275.000000;0.000000;nan;0.627727;0.838983
13.346400261;5.193999767;14.480899811;275.000000;0.000000;nan;0.843882;0.932203
13.601200104;5.099800110;15.246100426;275.000000;0.000000;nan;0.804269;0.894068
12.588700294;4.423900127;14.862799644;275.000000;0.000000;nan;0.266311;0.834746
13.629500389;4.872099876;15.223400116;275.000000;0.000000;nan;0.603142;0.881356
12.398900032;4.214799881;15.192899704;275.000000;0.000000;nan;0.518023;0.877119
12.362400055;4.613900185;15.053099632;275.000000;0.000000;nan;0.309270;0.822034
12.630000114;4.920800209;14.667300224;275.000000;0.000000;nan;0.436796;0.860169
12.255999565;3.871999979;15.183199883;275.000000;0.000000;nan;0.464564;0.796610
12.542099953;4.670000076;15.116000175;275.000000;0.000000;nan;0.450358;0.843220
