//X;Y;Z;Scalar field;C2C absolute distances;Illuminance (PCV)
-26.483299255;45.247001648;10.067700386;494.000000;0.308175;0.648305
-25.795099258;45.453998566;9.323699951;494.000000;0.289044;0.669492
-26.904199600;44.831699371;10.031399727;494.000000;0.325035;0.605932
-25.470300674;44.737098694;9.031800270;494.000000;0.271357;0.707627
-27.497200012;44.916000366;10.542200089;494.000000;0.673650;0.682203
-26.785800934;45.887401581;10.553600311;494.000000;1.064282;0.724576
-25.745100021;45.300598145;9.378999710;494.000000;0.336067;0.639831
-25.490600586;44.930301666;8.968799591;494.000000;0.135034;0.686441
-25.430799484;44.806400299;8.886899948;494.000000;0.172656;0.652542
-25.703500748;45.355201721;9.300399780;494.000000;0.295297;0.644068
-25.926399231;45.073799133;9.508199692;494.000000;0.448512;0.593220
-26.545700073;45.671100616;10.524100304;494.000000;0.849256;0.699153
-26.648000717;43.878700256;9.287300110;494.000000;0.659341;0.656780
-25.688400269;44.759899139;9.179400444;494.000000;0.434024;0.648305
-26.337600708;45.631698608;9.970100403;494.000000;0.710100;0.686441
-26.903200150;46.102500916;9.252799988;494.000000;0.970762;0.758475
-27.394199371;44.662399292;10.413700104;494.000000;0.462671;0.652542
-27.127899170;44.534900665;10.576999664;494.000000;0.679325;0.716102
-27.490900040;45.023498535;10.452099800;494.000000;0.658427;0.699153
-25.912599564;45.263900757;9.601200104;494.000000;0.498261;0.690678
-25.837600708;45.246398926;9.429400444;494.000000;0.360988;0.605932
-26.242000580;45.606998444;10.092000008;494.000000;0.730199;0.711864
-27.406400681;44.944801331;10.405900002;494.000000;0.565854;0.669492
-25.959600449;45.838001251;10.805600166;494.000000;1.318646;0.652542
-25.407899857;44.927200317;8.817199707;494.000000;0.085244;0.627119
-27.473199844;44.996299744;10.350500107;494.000000;0.563468;0.618644
-26.449399948;44.708999634;10.737899780;494.000000;0.732598;0.724576
-27.367300034;44.676101685;10.549500465;494.000000;0.599617;0.639831
-26.658500671;44.880298615;10.652899742;494.000000;0.593175;0.737288
-25.716800690;45.175399780;9.364399910;494.000000;0.320040;0.610169
-26.580999374;45.191898346;10.212100029;494.000000;0.276488;0.635593
-26.555099487;45.414001465;10.214300156;494.000000;0.482046;0.656780
-26.017599106;46.055400848;10.864600182;494.000000;1.479078;0.720339
-26.473199844;45.392799377;10.056400299;494.000000;0.450080;0.644068
-26.655799866;45.972900391;10.619500160;494.000000;1.156621;0.800847
-25.689500809;45.321300507;9.553099632;494.000000;0.266724;0.665254
-26.437599182;44.636199951;10.654199600;494.000000;0.690512;0.737288
-26.236700058;45.758399963;10.883999825;494.000000;1.202123;0.661017
-25.601900101;44.791099548;8.934900284;494.000000;0.283974;0.605932
-25.607900620;44.749599457;8.767700195;494.000000;0.207608;0.648305
-27.385700226;44.805099487;10.392200470;494.000000;0.481663;0.618644
-25.511400223;44.677898407;8.953700066;494.000000;0.324154;0.669492
-26.723800659;45.568599701;10.208399773;494.000000;0.637658;0.728814
-26.511499405;45.129600525;10.268799782;494.000000;0.281507;0.677966
-27.525600433;44.711498260;10.664400101;494.000000;0.730136;0.597458
-24.547500610;40.804298401;11.831800461;494.000000;0.401406;0.771186
-24.224700928;40.491100311;11.279600143;494.000000;0.267874;0.822034
-21.936700821;42.011001587;12.133399963;494.000000;1.232245;0.741525
-22.022600174;42.112800598;12.102999687;494.000000;1.243210;0.788136
-21.972000122;41.985801697;12.260199547;494.000000;1.148633;0.826271
-21.851800919;41.823299408;12.023900032;494.000000;1.255570;0.771186
-21.940200806;41.855899811;12.163299561;494.000000;1.139745;0.809322
-22.001199722;42.068801880;12.206899643;494.000000;1.192792;0.817797
-33.380199432;40.538200378;13.318900108;494.000000;0.885026;0.800847
-29.766799927;42.084598541;11.582500458;494.000000;0.359730;0.737288
-32.773899078;42.553398132;10.882300377;494.000000;1.526781;0.838983
-32.838798523;42.323501587;10.866700172;494.000000;1.427290;0.750000
-32.783798218;42.442699432;10.894800186;494.000000;1.453062;0.809322
-28.556499481;46.909198761;8.795399666;494.000000;0.774142;0.737288
-28.178300858;46.198001862;8.703499794;494.000000;0.677831;0.720339
-28.533300400;46.815399170;8.831899643;494.000000;0.764659;0.754237
-28.678800583;46.166099548;8.718600273;494.000000;0.499824;0.724576
-28.454999924;46.882099152;8.809000015;494.000000;0.787217;0.813559
-28.416200638;46.451999664;9.391200066;494.000000;1.265918;0.868644
-28.552700043;46.047798157;9.124799728;494.000000;0.861614;0.788136
-28.696800232;46.418701172;9.418399811;494.000000;1.234504;0.864407
-28.666200638;46.682098389;8.782899857;494.000000;0.668660;0.648305
-28.331199646;45.978500366;8.806799889;494.000000;0.657059;0.754237
-28.634300232;46.770198822;8.837499619;494.000000;0.747005;0.711864
-28.604499817;46.534999847;9.399200439;494.000000;1.259676;0.851695
-28.233299255;46.107700348;8.727399826;494.000000;0.684472;0.792373
-28.682699203;46.551998138;8.719799995;494.000000;0.584687;0.652542
-28.619800568;46.947700500;8.877599716;494.000000;0.861368;0.754237
-28.644399643;46.338500977;8.711700439;494.000000;0.595047;0.699153
-28.503999710;46.512699127;9.397100449;494.000000;1.262813;0.864407
-29.670400620;44.675098419;10.489800453;494.000000;0.650731;0.796610
-29.075700760;43.887401581;10.714799881;494.000000;0.364321;0.750000
-28.516899109;43.439201355;8.477299690;494.000000;0.461773;0.699153
-29.429899216;44.917800903;10.382100105;494.000000;0.753943;0.809322
-29.399599075;43.385200500;9.438199997;494.000000;0.566930;0.750000
-29.259799957;43.688098907;9.095499992;494.000000;0.222896;0.703390
-29.123899460;43.819900513;9.115400314;494.000000;0.244822;0.707627
-29.331499100;43.673999786;9.301400185;494.000000;0.355757;0.792373
-29.005699158;43.924400330;10.638699532;494.000000;0.340682;0.775424
-24.204799652;43.699501038;9.881799698;494.000000;0.775052;0.766949
-24.035499573;44.100498199;9.273599625;494.000000;1.335805;0.720339
-24.538799286;44.045299530;9.028499603;494.000000;1.160548;0.720339
-24.256000519;42.662799835;9.189000130;494.000000;0.811988;0.733051
-24.777200699;43.535598755;8.812899590;494.000000;0.965954;0.618644
-24.252799988;43.720600128;9.748800278;494.000000;0.768692;0.771186
-24.945699692;43.821701050;9.635700226;494.000000;0.640815;0.665254
-24.407499313;43.747299194;9.017100334;494.000000;1.120793;0.711864
-24.100000381;44.009101868;9.350299835;494.000000;1.201998;0.682203
-24.531900406;43.902698517;9.127599716;494.000000;1.072134;0.716102
-24.561500549;43.219898224;8.747200012;494.000000;1.034435;0.728814
-24.497900009;43.896499634;8.927499771;494.000000;1.219042;0.686441
-24.644800186;43.672298431;8.668700218;494.000000;1.039804;0.677966
-24.479999542;43.725299835;9.505100250;494.000000;0.725261;0.652542
-24.308399200;43.473400116;9.124699593;494.000000;0.988097;0.677966
-24.794799805;43.878501892;9.926699638;494.000000;0.619130;0.711864
-24.387599945;43.426399231;8.612500191;494.000000;1.099968;0.750000
-24.185100555;42.776000977;9.105899811;494.000000;0.964757;0.754237
-24.427799225;44.284999847;9.368700027;494.000000;1.083175;0.733051
-24.908100128;43.681198120;9.742600441;494.000000;0.464030;0.699153
-24.212600708;43.807498932;9.636099815;494.000000;0.883471;0.745763
-24.403799057;43.303600311;10.697199821;494.000000;0.471138;0.716102
-24.158700943;43.553100586;9.696900368;494.000000;0.778588;0.737288
-24.553300858;43.936599731;9.032999992;494.000000;1.158355;0.690678
-24.890399933;43.825599670;10.010199547;494.000000;0.565137;0.707627
-23.912300110;44.174701691;9.234299660;494.000000;1.476970;0.779661
-24.420000076;43.615600586;8.746500015;494.000000;1.243276;0.703390
-24.490299225;43.590698242;8.982799530;494.000000;1.060958;0.690678
-24.649299622;44.037601471;8.952199936;494.000000;1.096698;0.716102
-24.209299088;43.624298096;9.622200012;494.000000;0.791462;0.690678
-24.213100433;43.816200256;9.760000229;494.000000;0.855771;0.754237
-24.553100586;43.465000153;8.720399857;494.000000;1.153571;0.673729
-24.489599228;43.793899536;9.099399567;494.000000;1.046776;0.690678
-24.224599838;44.187599182;9.447299957;494.000000;1.213021;0.741525
-24.657800674;43.517898560;10.562899590;494.000000;0.114484;0.792373
-24.476600647;43.457500458;9.182900429;494.000000;0.853428;0.673729
-24.319299698;43.271999359;10.495599747;494.000000;0.516211;0.733051
-25.384000778;44.214900970;10.072099686;494.000000;0.947283;0.766949
-24.980100632;43.765499115;9.843700409;494.000000;0.529636;0.694915
-26.173000336;43.761798859;9.721899986;494.000000;0.899847;0.686441
-25.422700882;44.118099213;9.326100349;494.000000;0.802112;0.639831
-25.204599380;44.110599518;9.897100449;494.000000;0.923976;0.665254
-25.028999329;43.872699738;9.933799744;494.000000;0.639387;0.728814
-24.988700867;43.698600769;9.676699638;494.000000;0.525554;0.605932
-25.426900864;43.676601410;9.984600067;494.000000;0.691750;0.656780
-25.542800903;43.623798370;9.845100403;494.000000;0.738324;0.673729
-24.943099976;43.760299683;8.715499878;494.000000;0.739769;0.686441
-25.389600754;43.602798462;8.625399590;494.000000;0.365052;0.669492
-25.445899963;43.992298126;9.463600159;494.000000;0.891421;0.665254
-24.946100235;43.622699738;9.595600128;494.000000;0.502340;0.686441
-25.156099319;43.738998413;9.946000099;494.000000;0.571895;0.686441
-25.275100708;43.830001831;9.504099846;494.000000;0.817860;0.627119
-24.850799561;43.333301544;10.213399887;494.000000;0.293908;0.733051
-25.106199265;43.294700623;8.890600204;494.000000;0.793687;0.656780
-25.864400864;43.951000214;8.892600060;494.000000;0.342903;0.733051
-25.390600204;43.983600616;9.235799789;494.000000;0.698544;0.682203
-24.571800232;42.189098358;10.388500214;494.000000;0.180136;0.771186
-25.075199127;43.736801147;10.027000427;494.000000;0.538629;0.707627
-26.701799393;42.856399536;9.127699852;494.000000;0.764785;0.741525
-25.498100281;43.857398987;9.539699554;494.000000;0.940756;0.669492
-25.187799454;43.803298950;8.621299744;494.000000;0.483035;0.656780
-25.087600708;43.207199097;8.956399918;494.000000;0.688561;0.694915
-25.378700256;44.007499695;8.576000214;494.000000;0.334047;0.644068
-27.178899765;46.513401031;9.080800056;494.000000;0.875702;0.699153
-26.931699753;46.375801086;9.320199966;494.000000;1.054124;0.745763
-27.113700867;46.577598572;9.038399696;494.000000;0.858340;0.694915
-26.974700928;46.512901306;9.015399933;494.000000;0.804752;0.686441
-27.103599548;46.517799377;9.366499901;494.000000;1.134479;0.745763
-27.827100754;46.957599640;8.737700462;494.000000;0.970035;0.745763
-27.818300247;46.894199371;8.896100044;494.000000;1.001242;0.813559
-27.004600525;46.319400787;9.196499825;494.000000;0.918381;0.656780
-27.163099289;46.400398254;9.016599655;494.000000;0.775383;0.601695
-28.023000717;46.515098572;9.140999794;494.000000;1.075397;0.737288
-26.993499756;46.639400482;9.289899826;494.000000;1.105931;0.796610
-26.823900223;46.405498505;9.199399948;494.000000;0.960105;0.724576
-27.791700363;46.322601318;9.457699776;494.000000;1.215366;0.822034
-26.918300629;46.641799927;9.366999626;494.000000;1.181220;0.826271
-27.676399231;46.446601868;9.409399986;494.000000;1.161327;0.809322
-28.170600891;46.300399780;8.690400124;494.000000;0.646300;0.737288
-26.992300034;46.537101746;9.430600166;494.000000;1.198871;0.817797
-27.086399078;46.754199982;9.172900200;494.000000;1.062324;0.775424
-27.082599640;46.480201721;8.981599808;494.000000;0.761235;0.622881
-27.010299683;46.303501129;9.437899590;494.000000;1.154923;0.826271
-24.933799744;37.705101013;10.504500389;494.000000;0.797953;0.779661
-24.982400894;37.570400238;10.525600433;494.000000;0.783419;0.805085
-23.716499329;41.085998535;10.604000092;494.000000;0.438731;0.737288
-23.902200699;41.976398468;10.036499977;494.000000;0.647909;0.690678
-23.311000824;41.370601654;10.017800331;494.000000;0.406837;0.610169
-23.537599564;41.958801270;9.919699669;494.000000;0.334736;0.703390
-23.504100800;40.582401276;10.250200272;494.000000;0.138054;0.673729
-23.252599716;41.456001282;10.251299858;494.000000;0.445506;0.631356
-23.807199478;41.983299255;9.974100113;494.000000;0.591370;0.648305
-23.499799728;41.390300751;10.422599792;494.000000;0.631658;0.673729
-22.818399429;41.736698151;10.547699928;494.000000;0.373101;0.716102
-22.856800079;41.647201538;10.643199921;494.000000;0.428616;0.745763
-23.885599136;41.505298615;10.228500366;494.000000;0.693111;0.669492
-23.539800644;41.299098969;10.407600403;494.000000;0.566929;0.686441
-23.197399139;41.345199585;10.301500320;494.000000;0.494209;0.631356
-23.989200592;41.716800690;10.419400215;494.000000;0.806898;0.745763
-23.675800323;42.045299530;9.604299545;494.000000;0.381539;0.724576
-23.925399780;41.806999207;10.434800148;494.000000;0.732884;0.737288
-23.603399277;41.905700684;10.025899887;494.000000;0.391775;0.622881
-23.809600830;41.610500336;9.871399879;494.000000;0.498070;0.627119
-24.186000824;41.605400085;10.275099754;494.000000;0.592932;0.656780
-22.919799805;41.360099792;10.093600273;494.000000;0.163576;0.733051
-22.394800186;40.684600830;10.655099869;494.000000;0.546439;0.745763
-23.651899338;41.983600616;9.902600288;494.000000;0.444289;0.665254
-23.689899445;41.473899841;9.495300293;494.000000;0.226989;0.707627
-23.951200485;41.810298920;10.213899612;494.000000;0.692724;0.605932
-23.472299576;40.586498260;10.378499985;494.000000;0.200995;0.622881
-23.676500320;41.476699829;10.293800354;494.000000;0.645069;0.627119
-24.125900269;41.602001190;10.377499580;494.000000;0.707680;0.728814
-23.143400192;41.201801300;10.060799599;494.000000;0.361055;0.588983
-23.757999420;41.313201904;10.463500023;494.000000;0.640246;0.737288
-23.697200775;41.901401520;10.088600159;494.000000;0.489986;0.690678
-23.605800629;41.246700287;10.331500053;494.000000;0.514553;0.711864
-23.851200104;41.870601654;10.273400307;494.000000;0.683736;0.690678
-23.716100693;42.039901733;10.003999710;494.000000;0.537453;0.694915
-24.260799408;41.757400513;10.439700127;494.000000;0.682691;0.724576
-22.194299698;40.793899536;9.947299957;494.000000;0.505487;0.758475
-23.507999420;41.690601349;10.442099571;494.000000;0.495445;0.694915
-22.699600220;40.951400757;10.027799606;494.000000;0.167241;0.690678
-23.288900375;41.393699646;10.386699677;494.000000;0.575756;0.690678
-22.526599884;41.019298553;10.690999985;494.000000;0.275294;0.682203
-22.685199738;41.406200409;10.427900314;494.000000;0.279887;0.690678
-23.411500931;41.356399536;10.361300468;494.000000;0.553011;0.711864
-22.678600311;41.564601898;10.509699821;494.000000;0.292034;0.720339
-22.702199936;40.966300964;10.196200371;494.000000;0.230540;0.711864
-23.173500061;41.294898987;10.197500229;494.000000;0.441880;0.661017
-23.623399734;41.342899323;10.270199776;494.000000;0.565489;0.631356
-24.341400146;42.033500671;9.924599648;494.000000;0.321814;0.707627
-23.469100952;41.036399841;10.308899879;494.000000;0.314237;0.661017
-23.532400131;41.796001434;10.343199730;494.000000;0.422624;0.724576
-23.284099579;40.981998444;10.134300232;494.000000;0.128141;0.665254
-22.678800583;41.437900543;10.210599899;494.000000;0.066163;0.720339
-23.204599380;41.204898834;10.141799927;494.000000;0.345066;0.572034
-22.768800735;41.546398163;10.373000145;494.000000;0.236819;0.673729
-22.799999237;41.533401489;10.682200432;494.000000;0.484772;0.771186
-22.940000534;41.740001678;10.487899780;494.000000;0.286530;0.699153
-23.836700439;41.708099365;10.135700226;494.000000;0.629223;0.593220
-23.096700668;40.957599640;9.971699715;494.000000;0.266377;0.686441
-22.521900177;41.083801270;10.598099709;494.000000;0.194816;0.741525
-23.547899246;41.227100372;10.537099838;494.000000;0.617104;0.737288
-23.038600922;41.276901245;9.592100143;494.000000;0.115694;0.728814
-22.791500092;40.954299927;9.882499695;494.000000;0.049569;0.711864
-23.128499985;41.475498199;10.243499756;494.000000;0.399216;0.652542
-22.773799896;41.532501221;10.584500313;494.000000;0.415258;0.711864
-22.711200714;40.840801239;10.344099998;494.000000;0.406984;0.745763
-24.065299988;41.586399078;10.248600006;494.000000;0.610897;0.648305
-23.454900742;41.263301849;10.544599533;494.000000;0.619399;0.788136
-23.183599472;41.557201385;10.365900040;494.000000;0.416185;0.703390
-28.061700821;42.036399841;9.483599663;494.000000;0.338954;0.661017
-27.826099396;41.374801636;10.215600014;494.000000;1.247419;0.792373
-28.099800110;43.216701508;8.459500313;494.000000;0.790033;0.686441
-27.974100113;42.017101288;9.553600311;494.000000;0.414273;0.707627
-27.532499313;43.104598999;8.683199883;494.000000;0.981322;0.745763
-23.103000641;40.189399719;11.141099930;494.000000;0.423728;0.788136
-24.379400253;40.650501251;10.086500168;494.000000;0.266445;0.716102
-24.316400528;40.590599060;9.743200302;494.000000;0.322117;0.707627
-24.106599808;40.247001648;10.037400246;494.000000;0.284034;0.720339
-24.257999420;40.602298737;9.590000153;494.000000;0.160019;0.673729
-25.117200851;40.853500366;10.198599815;494.000000;0.579115;0.766949
-24.466299057;40.483898163;10.145700455;494.000000;0.220920;0.711864
-25.177000046;41.093498230;10.259099960;494.000000;0.377248;0.733051
-24.286500931;40.408100128;10.108900070;494.000000;0.297563;0.677966
-24.162799835;40.578399658;9.711999893;494.000000;0.266024;0.694915
-24.028799057;40.645099640;9.611300468;494.000000;0.210908;0.686441
-25.043699265;40.965999603;10.200699806;494.000000;0.502980;0.711864
-24.256500244;36.676898956;10.707699776;494.000000;0.898244;0.834746
-26.205600739;46.803001404;7.435800076;494.000000;1.079563;0.758475
-26.547100067;46.540901184;8.253499985;494.000000;0.595506;0.699153
-25.946399689;46.818801880;7.207399845;494.000000;0.765319;0.605932
-26.013999939;46.742099762;7.417300224;494.000000;0.947689;0.711864
-26.544399261;46.358501434;8.314800262;494.000000;0.464517;0.724576
-26.177400589;46.681598663;7.373300076;494.000000;0.989366;0.631356
-27.674999237;46.073200226;7.832200050;494.000000;0.112636;0.648305
-26.589700699;46.492500305;8.330499649;494.000000;0.533763;0.682203
-26.020299911;46.703701019;7.211100101;494.000000;0.773163;0.635593
-28.028699875;46.736301422;8.624099731;494.000000;0.734429;0.754237
-26.113700867;46.842201233;7.197899818;494.000000;0.861921;0.648305
-26.681100845;46.429500580;8.355299950;494.000000;0.427141;0.669492
-26.606500626;46.624298096;8.320699692;494.000000;0.610588;0.711864
-25.939100266;46.624298096;7.509600163;494.000000;0.978948;0.771186
-26.027299881;46.895698547;7.326799870;494.000000;0.928027;0.720339
-26.081499100;46.658199310;7.342000008;494.000000;0.904314;0.648305
-28.088899612;46.381900787;8.616499901;494.000000;0.610114;0.656780
-26.116199493;46.942600250;7.323800087;494.000000;0.991478;0.771186
-26.221700668;46.621898651;7.300199986;494.000000;0.955776;0.661017
-26.656099319;46.342700958;8.279999733;494.000000;0.373103;0.639831
-27.905799866;45.937698364;7.689499855;494.000000;0.053148;0.618644
-26.170799255;46.837100983;7.319600105;494.000000;0.981574;0.720339
-28.428100586;37.837799072;11.523900032;494.000000;0.204611;0.809322
-29.326000214;42.242900848;8.453700066;494.000000;0.541147;0.661017
-30.178699493;42.490100861;8.931900024;494.000000;0.677460;0.728814
-29.492099762;40.537200928;8.318699837;494.000000;0.195879;0.699153
-29.583999634;42.344898224;10.131299973;494.000000;0.288316;0.754237
-29.309900284;41.564998627;8.463700294;494.000000;0.352575;0.741525
-29.580200195;40.485599518;8.480699539;494.000000;0.137345;0.783898
-29.495899200;40.527500153;8.427300453;494.000000;0.187310;0.754237
-30.318000793;41.809700012;9.441200256;494.000000;0.751156;0.783898
-30.041400909;42.595401764;8.921999931;494.000000;0.776042;0.758475
-28.614299774;46.422500610;8.362099648;494.000000;0.236267;0.694915
-28.673299789;46.254600525;8.359700203;494.000000;0.274916;0.677966
-28.546699524;46.388198853;8.270199776;494.000000;0.185896;0.699153
-28.208599091;46.255401611;8.550200462;494.000000;0.514469;0.665254
-28.690500259;46.204898834;8.581500053;494.000000;0.416008;0.699153
-28.347900391;46.087299347;8.586000443;494.000000;0.505402;0.690678
-28.632400513;46.051200867;8.265099525;494.000000;0.117534;0.652542
-28.648099899;46.486801147;8.569999695;494.000000;0.430835;0.686441
-28.250299454;46.315200806;8.396699905;494.000000;0.348000;0.686441
-22.371099472;40.266601563;10.520999908;494.000000;0.709713;0.817797
-29.915100098;42.953899384;8.713899612;494.000000;0.636308;0.716102
-29.991500854;42.846801758;8.710100174;494.000000;0.602129;0.728814
-30.135099411;42.612800598;8.996100426;494.000000;0.770657;0.822034
-25.868400574;46.373699188;7.275300026;494.000000;0.747163;0.639831
-25.815999985;45.731498718;6.494500160;494.000000;0.522664;0.652542
-26.714799881;45.354999542;8.209799767;494.000000;0.571969;0.694915
-26.338199615;45.422298431;6.812699795;494.000000;0.436563;0.652542
-27.500799179;45.249599457;7.958600044;494.000000;0.450953;0.716102
-25.490800858;45.653598785;6.701600075;494.000000;0.621534;0.627119
-25.896699905;46.450099945;6.913700104;494.000000;0.454714;0.686441
-27.128799438;43.961101532;6.644899845;494.000000;0.196952;0.584746
-27.070999146;44.427200317;7.548999786;494.000000;0.780069;0.614407
-27.174600601;44.011100769;7.417900085;494.000000;0.843770;0.610169
-26.055500031;45.335201263;6.391699791;494.000000;0.771230;0.576271
-26.124500275;45.264400482;6.451499939;494.000000;0.660888;0.588983
-27.138200760;44.149299622;7.110099792;494.000000;0.578732;0.563559
-26.471700668;45.296699524;6.718100071;494.000000;0.304954;0.555085
-25.709499359;46.122001648;6.848499775;494.000000;0.468937;0.711864
-26.731399536;45.461399078;7.305099964;494.000000;0.173824;0.610169
-26.952100754;45.259998322;8.211899757;494.000000;0.639602;0.635593
-26.823999405;45.319301605;7.459000111;494.000000;0.231791;0.593220
-26.676399231;45.615501404;8.307999611;494.000000;0.414610;0.699153
-26.640399933;45.302200317;7.460199833;494.000000;0.300330;0.644068
-27.284700394;45.018600464;7.829299927;494.000000;0.604031;0.580508
-26.389499664;45.408599854;6.674300194;494.000000;0.448271;0.588983
-27.300800323;45.200801849;8.189700127;494.000000;0.710219;0.690678
-26.539100647;45.378398895;6.763899803;494.000000;0.298554;0.610169
-26.365299225;45.302398682;6.785099983;494.000000;0.362734;0.622881
-27.718500137;45.548698425;7.631299973;494.000000;0.113413;0.622881
-27.383399963;45.365398407;7.862800121;494.000000;0.379564;0.673729
-26.385200500;46.157299042;8.219099998;494.000000;0.451797;0.699153
-27.293500900;43.902900696;7.669600010;494.000000;0.846344;0.728814
-25.795200348;46.338199615;6.736400127;494.000000;0.297915;0.682203
-26.249200821;46.063499451;8.052800179;494.000000;0.430541;0.682203
-26.353399277;45.245399475;7.393199921;494.000000;0.478966;0.699153
-27.545600891;45.084098816;7.592899799;494.000000;0.385371;0.597458
-27.481700897;45.118000031;7.513400078;494.000000;0.346887;0.635593
-26.757499695;45.699600220;8.355699539;494.000000;0.345259;0.699153
-27.787200928;45.593799591;7.731800079;494.000000;0.232395;0.644068
-27.309700012;45.161098480;7.935299873;494.000000;0.563121;0.644068
-26.434900284;45.124801636;7.463500023;494.000000;0.516257;0.644068
-26.712799072;45.678798676;8.218000412;494.000000;0.315052;0.627119
-26.293800354;45.154701233;7.288400173;494.000000;0.515526;0.682203
-26.936000824;43.925201416;6.772399902;494.000000;0.159702;0.529661
-26.878700256;45.550598145;8.356100082;494.000000;0.453056;0.690678
-27.341100693;44.917098999;7.742099762;494.000000;0.627480;0.639831
-26.605199814;45.425300598;6.683300018;494.000000;0.361095;0.631356
-27.403200150;44.249198914;7.623600006;494.000000;0.945610;0.673729
-27.128900528;45.408798218;7.884699821;494.000000;0.368311;0.631356
-27.178499222;43.902000427;7.514900208;494.000000;0.816445;0.656780
-27.186300278;45.301898956;7.904399872;494.000000;0.485306;0.610169
-26.337799072;45.347400665;8.295399666;494.000000;0.681974;0.728814
-27.455099106;45.330299377;8.026200294;494.000000;0.487213;0.618644
-27.183700562;45.201698303;7.886799812;494.000000;0.557551;0.555085
-27.117900848;45.339298248;7.793200016;494.000000;0.379544;0.610169
-27.351999283;44.353401184;7.574500084;494.000000;0.947397;0.521186
-26.012199402;46.536899567;7.535200119;494.000000;0.972460;0.758475
-27.165199280;45.169300079;8.347299576;494.000000;0.767470;0.737288
-27.128099442;44.089401245;7.011199951;494.000000;0.477256;0.559322
-26.816099167;45.591999054;8.248999596;494.000000;0.361154;0.665254
-26.459400177;45.459098816;6.784200191;494.000000;0.390158;0.644068
-26.312700272;46.129501343;8.155900002;494.000000;0.448176;0.745763
-27.376300812;45.095699310;7.859300137;494.000000;0.525758;0.665254
-26.683799744;46.113998413;8.140999794;494.000000;0.203896;0.711864
-26.361900330;44.692100525;6.666999817;494.000000;0.450241;0.690678
-25.568599701;44.945999146;8.613100052;494.000000;0.095446;0.711864
-26.611499786;45.280200958;6.741799831;494.000000;0.221708;0.614407
-26.472600937;45.175899506;6.591800213;494.000000;0.293216;0.610169
-26.822399139;45.417598724;7.425399780;494.000000;0.131478;0.656780
-26.302200317;45.576900482;6.661300182;494.000000;0.613234;0.711864
-26.498500824;45.172298431;6.491799831;494.000000;0.346759;0.550847
-26.625600815;44.887001038;6.569200039;494.000000;0.237896;0.699153
-26.734399796;45.371601105;8.002900124;494.000000;0.427707;0.656780
-25.764900208;46.212200165;6.709799767;494.000000;0.345313;0.644068
-26.564300537;45.140800476;6.367800236;494.000000;0.421933;0.639831
-26.425399780;45.498001099;6.895800114;494.000000;0.417924;0.682203
-26.227899551;45.643798828;6.629399776;494.000000;0.686676;0.656780
-26.693599701;45.272800446;7.007999897;494.000000;0.099269;0.661017
-27.052200317;45.409801483;8.165300369;494.000000;0.498001;0.690678
-27.353399277;45.295200348;8.051300049;494.000000;0.563061;0.661017
-25.494400024;45.628501892;6.540500164;494.000000;0.569810;0.601695
-25.573400497;45.883300781;6.668700218;494.000000;0.423547;0.665254
-27.393999100;45.024799347;7.554500103;494.000000;0.474242;0.580508
-27.099599838;44.095600128;7.306000233;494.000000;0.723319;0.593220
-27.352300644;45.292400360;7.641200066;494.000000;0.295963;0.635593
-26.567399979;44.765300751;6.457399845;494.000000;0.256308;0.631356
-26.536300659;44.895301819;6.370399952;494.000000;0.379272;0.559322
-26.999399185;45.072498322;8.179400444;494.000000;0.793538;0.690678
-27.473100662;44.953201294;7.789500237;494.000000;0.577907;0.635593
-27.689699173;45.550201416;7.729300022;494.000000;0.156109;0.644068
-26.377500534;45.109500885;6.565700054;494.000000;0.351228;0.627119
-26.567600250;44.904800415;7.367700100;494.000000;0.493107;0.605932
-26.632999420;45.325401306;7.194300175;494.000000;0.268375;0.652542
-26.915599823;45.383098602;7.385900021;494.000000;0.171408;0.635593
-27.267499924;45.097499847;8.401300430;494.000000;0.847244;0.779661
-25.576000214;45.862899780;6.563000202;494.000000;0.367544;0.567797
-27.161600113;45.084098816;7.699200153;494.000000;0.580917;0.631356
-26.687099457;45.206901550;7.549099922;494.000000;0.380507;0.605932
-25.715499878;45.853698730;6.571100235;494.000000;0.411037;0.622881
-26.457500458;45.974700928;8.407899857;494.000000;0.462612;0.788136
-26.059200287;45.327301025;6.506299973;494.000000;0.716686;0.669492
-27.286399841;44.036598206;7.386899948;494.000000;0.866514;0.627119
-26.409999847;45.196998596;6.411300182;494.000000;0.462456;0.610169
-27.194499969;45.163398743;8.134699821;494.000000;0.716093;0.682203
-27.011499405;45.757999420;8.453700066;494.000000;0.357365;0.669492
-27.247999191;43.970401764;6.961400032;494.000000;0.473530;0.555085
-26.303100586;46.177101135;8.425900459;494.000000;0.621701;0.771186
-25.764600754;46.109600067;6.757199764;494.000000;0.447113;0.652542
-25.763599396;45.613300323;6.434899807;494.000000;0.583886;0.550847
-26.606399536;44.972499847;6.664500237;494.000000;0.120314;0.669492
-26.406999588;45.973201752;8.137399673;494.000000;0.304664;0.661017
-26.203899384;44.947601318;7.715000153;494.000000;0.564193;0.703390
-26.627399445;44.649299622;7.347499847;494.000000;0.642758;0.593220
-27.313100815;44.152400970;7.166299820;494.000000;0.721963;0.661017
-25.749200821;45.794101715;6.452099800;494.000000;0.427341;0.538136
-27.082199097;43.921001434;6.726500034;494.000000;0.189345;0.567797
-26.163600922;45.362098694;6.451000214;494.000000;0.673744;0.618644
-25.962699890;45.968299866;8.039299965;494.000000;0.677465;0.724576
-26.545799255;45.084300995;6.560999870;494.000000;0.237420;0.593220
-27.307800293;45.164199829;7.668900013;494.000000;0.419576;0.605932
-25.956300735;45.289699554;6.434100151;494.000000;0.817045;0.631356
-26.592199326;45.028701782;6.479100227;494.000000;0.290362;0.631356
-25.653900146;45.754199982;6.559000015;494.000000;0.468239;0.601695
-26.311500549;45.047500610;6.424799919;494.000000;0.482418;0.610169
-24.292499542;45.222698212;6.976500034;494.000000;0.898207;0.601695
-23.744199753;45.016700745;7.364900112;494.000000;1.137942;0.614407
-23.821899414;45.236301422;7.463699818;494.000000;1.296617;0.711864
-25.301799774;46.261600494;6.859300137;494.000000;0.445233;0.673729
-25.634599686;46.640499115;7.353499889;494.000000;0.756284;0.588983
-24.152700424;44.909500122;7.396299839;494.000000;1.094805;0.724576
-24.067600250;45.339698792;6.752900124;494.000000;0.812834;0.644068
-23.558799744;45.470199585;7.484300137;494.000000;1.503152;0.771186
-24.128400803;45.281700134;6.995299816;494.000000;0.924445;0.703390
-24.248800278;44.911098480;6.559100151;494.000000;0.401566;0.576271
-25.205799103;46.220001221;6.963099957;494.000000;0.585804;0.707627
-24.705999374;44.648998260;7.261799812;494.000000;0.617742;0.677966
-25.391000748;46.308898926;7.108900070;494.000000;0.570262;0.677966
-25.037599564;45.378898621;6.854800224;494.000000;0.859602;0.703390
-25.082599640;45.590599060;6.590899944;494.000000;0.754529;0.597458
-25.419700623;46.446899414;7.010000229;494.000000;0.431437;0.686441
-24.678199768;44.813899994;7.046700001;494.000000;0.779930;0.669492
-24.843599319;44.812000275;6.896299839;494.000000;0.585510;0.648305
-25.499399185;46.560901642;7.252200127;494.000000;0.646497;0.605932
-25.325199127;45.684700012;6.583300114;494.000000;0.579511;0.588983
-25.377500534;46.272800446;7.230199814;494.000000;0.694909;0.682203
-25.267400742;45.693401337;6.441899776;494.000000;0.513904;0.593220
-24.529899597;44.854698181;6.726099968;494.000000;0.614615;0.550847
-24.796300888;45.708099365;6.504199982;494.000000;0.831468;0.635593
-25.017700195;45.351600647;6.730100155;494.000000;0.767584;0.652542
-25.091499329;46.256900787;6.626399994;494.000000;0.516574;0.665254
-25.203100204;45.797401428;6.589600086;494.000000;0.561662;0.614407
-24.578399658;44.738700867;6.942900181;494.000000;0.730590;0.605932
-25.032199860;44.600898743;6.498099804;494.000000;0.105644;0.627119
-23.924400330;45.179500580;6.843999863;494.000000;0.755427;0.614407
-25.328100204;46.368000031;6.881700039;494.000000;0.390301;0.669492
-24.235399246;44.887798309;7.329699993;494.000000;1.035969;0.656780
-24.820600510;44.766399384;7.001100063;494.000000;0.670177;0.690678
-23.674299240;45.122898102;7.490799904;494.000000;1.307832;0.669492
-24.575399399;44.942001343;7.053599834;494.000000;0.862912;0.635593
-25.413400650;46.195400238;7.111999989;494.000000;0.619537;0.635593
-25.168600082;45.663299561;6.602700233;494.000000;0.678138;0.555085
-24.554300308;44.913600922;6.956999779;494.000000;0.788486;0.563559
-23.655599594;45.120399475;7.745699883;494.000000;1.540669;0.822034
-25.204700470;46.349399567;6.773200035;494.000000;0.426270;0.724576
-25.297000885;45.835300446;6.491600037;494.000000;0.440782;0.614407
-25.434099197;46.203701019;6.835299969;494.000000;0.411070;0.648305
-24.111299515;45.050800323;7.251200199;494.000000;1.002954;0.720339
-24.673400879;45.203601837;7.017300129;494.000000;0.907088;0.750000
-24.044099808;45.356998444;7.026299953;494.000000;0.997540;0.724576
-24.628999710;44.961898804;6.890200138;494.000000;0.712704;0.559322
-23.779600143;45.393299103;7.497000217;494.000000;1.411868;0.711864
-24.872900009;44.664798737;7.369100094;494.000000;0.571827;0.741525
-25.294799805;46.400798798;6.740300179;494.000000;0.318302;0.627119
-24.986999512;44.676101685;6.547200203;494.000000;0.190619;0.605932
-23.731000900;45.381801605;7.612699986;494.000000;1.512063;0.805085
-25.446399689;46.418598175;6.777999878;494.000000;0.229558;0.644068
-24.332599640;44.897998810;6.744699955;494.000000;0.555114;0.538136
-25.609199524;46.389701843;6.818299770;494.000000;0.254616;0.639831
-24.101200104;44.928699493;7.308499813;494.000000;1.012486;0.686441
-24.273399353;44.926498413;8.406000137;494.000000;1.113536;0.750000
-23.974000931;45.252498627;7.006000042;494.000000;0.913297;0.711864
-25.511800766;46.589801788;6.890900135;494.000000;0.292141;0.644068
-24.307899475;44.920101166;6.866000175;494.000000;0.648125;0.614407
-24.591400146;44.835601807;7.138400078;494.000000;0.852994;0.737288
-24.377000809;45.199699402;7.071199894;494.000000;0.977720;0.711864
-24.537599564;44.817699432;6.877900124;494.000000;0.715647;0.588983
-25.027700424;46.403900146;7.677100182;494.000000;1.198523;0.847458
-25.381000519;46.125801086;7.471000195;494.000000;0.967042;0.762712
-24.697200775;45.719501495;6.480199814;494.000000;0.870894;0.673729
-24.162200928;45.404701233;6.938399792;494.000000;0.970803;0.711864
-24.239599228;45.060398102;7.262800217;494.000000;1.032035;0.703390
-23.856399536;45.071701050;6.961900234;494.000000;0.787155;0.694915
-25.615499496;46.481201172;7.208099842;494.000000;0.603249;0.593220
-24.070100784;45.134300232;6.941899776;494.000000;0.783021;0.627119
-25.336599350;46.073699951;6.743899822;494.000000;0.459819;0.661017
-25.128099442;45.761901855;6.528900146;494.000000;0.594935;0.614407
-25.473300934;46.538600922;6.800300121;494.000000;0.209167;0.711864
-23.715999603;45.270698547;7.324100018;494.000000;1.221318;0.745763
-23.767099380;45.266300201;7.675499916;494.000000;1.505877;0.800847
-23.595699310;45.103298187;7.415200233;494.000000;1.261026;0.669492
-24.369199753;45.091201782;7.118400097;494.000000;0.954319;0.648305
-23.773599625;45.034900665;6.432099819;494.000000;0.502255;0.673729
-25.679300308;46.411701202;7.035600185;494.000000;0.456285;0.618644
-24.153600693;45.094799042;7.071599960;494.000000;0.869689;0.665254
-23.592800140;45.426300049;7.591899872;494.000000;1.553204;0.851695
-25.329399109;45.669200897;6.698500156;494.000000;0.644931;0.631356
-24.691200256;45.763900757;6.579500198;494.000000;0.906640;0.707627
-23.557899475;45.051200867;7.728499889;494.000000;1.533382;0.817797
-25.397699356;45.845600128;6.496900082;494.000000;0.383369;0.597458
-25.177000046;46.204299927;6.674099922;494.000000;0.478987;0.563559
-24.996599197;45.484500885;6.809500217;494.000000;0.922120;0.694915
-25.178499222;44.632400513;8.100500107;494.000000;0.519567;0.694915
-23.672599792;45.154800415;7.596199989;494.000000;1.413324;0.796610
-25.489099503;45.772499084;6.531099796;494.000000;0.434746;0.572034
-25.515199661;46.179000854;6.758600235;494.000000;0.365216;0.550847
-24.212299347;45.065200806;7.368999958;494.000000;1.125664;0.783898
-24.347200394;45.075199127;7.313300133;494.000000;1.106341;0.745763
-25.378299713;46.123500824;7.249400139;494.000000;0.777908;0.639831
-23.811700821;45.231899261;6.785999775;494.000000;0.786748;0.690678
-24.477199554;44.878200531;6.626699924;494.000000;0.504983;0.538136
-25.462999344;46.451198578;6.905000210;494.000000;0.319772;0.644068
-24.729400635;44.596401215;8.427599907;494.000000;0.794205;0.707627
-24.351299286;45.009799957;7.016200066;494.000000;0.826696;0.555085
-24.358999252;44.980300903;7.223599911;494.000000;0.994726;0.694915
-25.165399551;46.600700378;7.464200020;494.000000;0.943514;0.754237
-24.340299606;44.821498871;6.563099861;494.000000;0.403334;0.500000
-25.488199234;46.335201263;7.100299835;494.000000;0.531918;0.610169
-25.614400864;46.378501892;7.149300098;494.000000;0.562986;0.618644
-24.692899704;44.864299774;6.910399914;494.000000;0.665871;0.665254
-24.939500809;46.480899811;7.592000008;494.000000;1.161940;0.838983
-25.062700272;46.477600098;7.546800137;494.000000;1.061367;0.754237
-25.510499954;46.583900452;6.704100132;494.000000;0.120069;0.652542
-24.250299454;45.352901459;6.899799824;494.000000;0.898056;0.635593
-24.782899857;44.644901276;6.738399982;494.000000;0.430045;0.500000
-23.687999725;45.279201508;7.611999989;494.000000;1.473528;0.737288
-24.714899063;44.674900055;8.224599838;494.000000;0.834418;0.648305
-25.458900452;46.495098114;7.410200119;494.000000;0.807704;0.745763
-23.626600266;45.359500885;7.506499767;494.000000;1.440169;0.766949
-24.690700531;44.720100403;6.896900177;494.000000;0.624579;0.631356
-23.881599426;45.344200134;6.764599800;494.000000;0.847376;0.694915
-24.256200790;45.154399872;7.039999962;494.000000;0.894325;0.593220
-25.719800949;46.453800201;7.328199863;494.000000;0.739124;0.682203
-24.463499069;45.013900757;7.021800041;494.000000;0.878775;0.601695
-24.796300888;45.848499298;6.523399830;494.000000;0.770676;0.720339
-24.614000320;45.078300476;7.088699818;494.000000;0.923230;0.707627
-24.069599152;45.121101379;6.803699970;494.000000;0.673160;0.618644
-25.531400681;46.664100647;7.441699982;494.000000;0.844055;0.703390
-25.286399841;45.602401733;6.630000114;494.000000;0.681620;0.555085
-24.078500748;45.294601440;7.101500034;494.000000;1.008609;0.758475
-25.396699905;45.609901428;6.773200035;494.000000;0.713731;0.699153
-25.637199402;46.268100739;7.206600189;494.000000;0.655784;0.627119
-24.310800552;44.879398346;6.648799896;494.000000;0.467977;0.610169
-25.317399979;46.177501678;6.744200230;494.000000;0.431961;0.593220
-24.385400772;44.910499573;6.508699894;494.000000;0.373376;0.601695
-25.196100235;45.829101563;6.471600056;494.000000;0.485958;0.588983
-24.334999084;45.072700500;8.607600212;494.000000;0.972534;0.762712
-25.610200882;46.236698151;6.715000153;494.000000;0.283985;0.546610
-23.899099350;45.189899445;6.747099876;494.000000;0.708251;0.593220
-24.462200165;44.977600098;6.547399998;494.000000;0.434880;0.644068
-23.489799500;44.795700073;7.113800049;494.000000;0.969483;0.627119
-24.030000687;44.716800690;6.455299854;494.000000;0.145050;0.567797
-23.312500000;44.721801758;7.475100040;494.000000;1.354725;0.741525
-23.603900909;44.806999207;7.465700150;494.000000;1.223621;0.665254
-23.404699326;44.847801208;6.943900108;494.000000;0.911275;0.724576
-23.835300446;44.605499268;7.337699890;494.000000;1.017987;0.669492
-23.425199509;44.407501221;7.553999901;494.000000;1.355508;0.733051
-23.958999634;44.668701172;6.644299984;494.000000;0.320041;0.618644
-23.625499725;44.690799713;6.662700176;494.000000;0.535327;0.542373
-24.068799973;44.821800232;6.460299969;494.000000;0.224253;0.542373
-24.164600372;44.810798645;7.335400105;494.000000;1.015445;0.707627
-24.833700180;44.415699005;7.971199989;494.000000;0.728538;0.665254
-23.768899918;44.691799164;6.674399853;494.000000;0.440648;0.610169
-23.659799576;44.903198242;6.547500134;494.000000;0.525052;0.720339
-23.559900284;44.976898193;7.432799816;494.000000;1.248830;0.682203
-23.506500244;44.404598236;7.633100033;494.000000;1.412174;0.737288
-23.270200729;44.611099243;7.574100018;494.000000;1.456404;0.783898
-23.668100357;45.028900146;6.493400097;494.000000;0.577710;0.677966
-23.702899933;44.745800018;6.758699894;494.000000;0.556749;0.631356
-24.700599670;44.522399902;7.407999992;494.000000;0.519414;0.737288
-24.092300415;44.650798798;6.585800171;494.000000;0.247341;0.635593
-24.919700623;44.165000916;7.478600025;494.000000;0.175780;0.669492
-23.517700195;45.034500122;7.229100227;494.000000;1.115091;0.745763
-23.768199921;44.456298828;7.111999989;494.000000;0.833400;0.618644
-23.672000885;44.880798340;7.179299831;494.000000;0.956047;0.682203
-23.856199265;44.595901489;6.704100132;494.000000;0.409482;0.605932
-23.611900330;44.959400177;7.540699959;494.000000;1.321265;0.699153
-24.716199875;44.472198486;7.983699799;494.000000;0.799565;0.677966
-24.221799850;44.742500305;6.698999882;494.000000;0.408064;0.555085
-23.436100006;44.816799164;7.326000214;494.000000;1.176196;0.690678
-23.574499130;44.849800110;7.553400040;494.000000;1.321947;0.686441
-24.645000458;44.553798676;8.064900398;494.000000;0.929862;0.711864
-23.601299286;44.726398468;6.824999809;494.000000;0.667045;0.635593
-23.144300461;44.506301880;7.611299992;494.000000;1.517619;0.826271
-23.927299500;44.666500092;6.528600216;494.000000;0.228359;0.605932
-23.526399612;44.634799957;6.943999767;494.000000;0.796047;0.614407
-23.758899689;44.804100037;6.875400066;494.000000;0.636086;0.661017
-24.147699356;44.706100464;8.604000092;494.000000;1.181544;0.783898
-23.496999741;45.047798157;7.612400055;494.000000;1.450721;0.826271
-23.614900589;44.834499359;6.971099854;494.000000;0.795060;0.605932
-23.524900436;44.897998810;6.835999966;494.000000;0.773667;0.703390
-23.569400787;44.846298218;7.180399895;494.000000;0.993012;0.601695
-23.618000031;44.618301392;7.140299797;494.000000;0.906196;0.593220
-23.476400375;44.568199158;6.748400211;494.000000;0.701584;0.707627
-23.594800949;44.523700714;6.800799847;494.000000;0.649898;0.665254
-24.995100021;44.220298767;7.711999893;494.000000;0.393448;0.661017
-23.927600861;44.501899719;7.396900177;494.000000;1.067078;0.673729
-24.625099182;44.583198547;6.855400085;494.000000;0.613698;0.584746
-24.704200745;44.539100647;7.875100136;494.000000;0.757561;0.707627
-23.917800903;44.594398499;7.459400177;494.000000;1.125024;0.792373
-23.743099213;44.941600800;6.784599781;494.000000;0.626357;0.669492
-24.824600220;44.579200745;7.420800209;494.000000;0.512322;0.733051
-23.503299713;44.604000092;6.846300125;494.000000;0.741382;0.673729
-23.690000534;44.943500519;7.310299873;494.000000;1.082702;0.644068
-23.426099777;44.885501862;7.135300159;494.000000;1.043910;0.707627
-23.501399994;44.493400574;7.844500065;494.000000;1.602787;0.851695
-23.527599335;44.934200287;7.227300167;494.000000;1.075930;0.635593
-23.160200119;44.639499664;7.527400017;494.000000;1.480512;0.783898
-23.242799759;44.628101349;7.449500084;494.000000;1.368634;0.754237
-23.772600174;44.443000793;7.261400223;494.000000;0.974088;0.618644
-24.945800781;44.022701263;7.756299973;494.000000;0.424551;0.648305
-23.567100525;44.890098572;7.340700150;494.000000;1.142501;0.682203
-23.422300339;45.002899170;7.563099861;494.000000;1.426362;0.788136
-24.886199951;43.871101379;7.842000008;494.000000;0.558824;0.699153
-23.526199341;44.730899811;7.497700214;494.000000;1.273193;0.699153
-23.516899109;44.819900513;7.415500164;494.000000;1.215219;0.720339
-24.597900391;44.500801086;7.984399796;494.000000;0.862430;0.720339
-24.767999649;44.100700378;7.789700031;494.000000;0.505175;0.711864
-23.422700882;44.405101776;7.407599926;494.000000;1.236286;0.690678
-23.819200516;44.664699554;6.774600029;494.000000;0.491734;0.707627
-23.132400513;44.311698914;7.684000015;494.000000;1.480510;0.868644
-23.726200104;44.846698761;7.099500179;494.000000;0.855458;0.601695
-23.596099854;44.938400269;6.463099957;494.000000;0.567725;0.741525
-23.658700943;44.719501495;7.124899864;494.000000;0.880502;0.610169
-23.487400055;44.785598755;6.915800095;494.000000;0.820050;0.593220
-24.361700058;43.378799438;8.490699768;494.000000;0.997822;0.737288
-23.656200409;44.768100739;7.314599991;494.000000;1.059800;0.648305
-23.261600494;44.452701569;7.643099785;494.000000;1.482544;0.800847
-23.198999405;44.192298889;7.678599834;494.000000;1.408050;0.796610
-23.456100464;44.610198975;7.352099895;494.000000;1.170126;0.639831
-23.833200455;44.552700043;6.859200001;494.000000;0.562638;0.694915
-24.979999542;44.171298981;7.808300018;494.000000;0.475012;0.665254
-24.208499908;44.834201813;6.648200035;494.000000;0.396627;0.618644
-23.712200165;44.497398376;7.192200184;494.000000;0.920752;0.584746
-24.328399658;44.741401672;6.624199867;494.000000;0.404286;0.563559
-24.200799942;44.668598175;6.633500099;494.000000;0.326637;0.538136
-24.960199356;44.125301361;7.601299763;494.000000;0.265874;0.635593
-23.796899796;44.193298340;7.119100094;494.000000;0.886924;0.703390
-23.561700821;44.654300690;7.591000080;494.000000;1.340611;0.762712
-23.537300110;44.729698181;6.592100143;494.000000;0.579680;0.694915
-23.420400620;44.722301483;7.234000206;494.000000;1.095588;0.673729
-23.646600723;44.540500641;7.073299885;494.000000;0.836626;0.610169
-25.350400925;43.644298553;8.517800331;494.000000;0.374249;0.605932
-26.980300903;43.536201477;7.342199802;494.000000;0.736636;0.572034
-25.143800735;44.019500732;7.944900036;494.000000;0.625426;0.665254
-25.288299561;44.131198883;7.707200050;494.000000;0.468205;0.597458
-25.239000320;44.109199524;7.842199802;494.000000;0.556331;0.682203
-25.094200134;44.110801697;7.868800163;494.000000;0.537077;0.635593
-25.312200546;44.195098877;7.797999859;494.000000;0.547286;0.661017
-25.367300034;44.011299133;7.631299973;494.000000;0.470103;0.576271
-24.994899750;43.926101685;7.927199841;494.000000;0.609216;0.690678
-25.198299408;44.163898468;7.737500191;494.000000;0.450108;0.682203
-25.113100052;43.994998932;7.840700150;494.000000;0.521744;0.622881
-25.074199677;44.078498840;7.758900166;494.000000;0.425158;0.665254
-25.219299316;44.031299591;7.654099941;494.000000;0.387653;0.576271
-27.009599686;43.634899139;7.329999924;494.000000;0.759483;0.635593
-26.990100861;43.831901550;6.799099922;494.000000;0.212022;0.521186
-27.091199875;43.645698547;7.241600037;494.000000;0.686328;0.614407
-35.163700104;39.351799011;10.492099762;494.000000;2.529722;0.792373
-34.932998657;39.480899811;10.616299629;494.000000;2.512091;0.809322
-34.681999207;39.529701233;10.558300018;494.000000;2.345262;0.805085
-35.163501740;39.193901062;10.554900169;494.000000;2.570150;0.800847
-35.007301331;38.591999054;10.693499565;494.000000;2.647693;0.923729
-34.585998535;39.563899994;10.563799858;494.000000;2.295249;0.817797
-34.879699707;39.208599091;10.668800354;494.000000;2.505446;0.851695
-34.566699982;39.426300049;10.542200089;494.000000;2.264116;0.733051
-34.186401367;39.828399658;10.590700150;494.000000;1.905492;0.796610
-35.005798340;39.437301636;10.528499603;494.000000;2.473976;0.813559
-34.811698914;39.412300110;10.772000313;494.000000;2.419663;0.927966
-34.589298248;38.785301208;10.553700447;494.000000;2.290816;0.822034
-34.521900177;39.518199921;10.630499840;494.000000;2.238289;0.792373
-34.108398438;39.750598907;10.674599648;494.000000;1.841358;0.872881
-34.236301422;39.979801178;10.458100319;494.000000;1.967855;0.838983
-34.698299408;38.642700195;10.539799690;494.000000;2.353258;0.851695
-35.004001617;39.338100433;10.544099808;494.000000;2.475342;0.737288
-34.877799988;38.767200470;10.677000046;494.000000;2.536322;0.911017
-35.244701385;39.434700012;10.319199562;494.000000;2.459724;0.817797
-34.779598236;39.481899261;10.669099808;494.000000;2.411043;0.855932
-34.217601776;39.431598663;10.671099663;494.000000;2.080354;0.851695
-24.804800034;37.871398926;10.117500305;494.000000;0.594291;0.677966
-25.222299576;38.145301819;9.775699615;494.000000;0.507294;0.699153
-25.153699875;38.059600830;9.713600159;494.000000;0.409863;0.618644
-24.957599640;37.950698853;9.668999672;494.000000;0.338032;0.648305
-24.661600113;37.852600098;10.063500404;494.000000;0.522919;0.766949
-24.940999985;37.846199036;10.019399643;494.000000;0.477943;0.690678
-24.840700150;37.830299377;10.220199585;494.000000;0.664395;0.724576
-24.722700119;37.925899506;10.351599693;494.000000;0.773443;0.754237
-24.810499191;38.004299164;9.636899948;494.000000;0.381350;0.694915
-24.925699234;37.729198456;10.151399612;494.000000;0.562605;0.733051
-25.035600662;37.918598175;9.516699791;494.000000;0.204657;0.627119
-24.902099609;37.855400085;9.618900299;494.000000;0.241505;0.635593
-24.966999054;37.658901215;10.227999687;494.000000;0.628855;0.699153
-24.933500290;37.954498291;10.369500160;494.000000;0.647553;0.809322
-25.713499069;46.844501495;7.347899914;494.000000;0.817128;0.703390
-25.452800751;46.898998260;7.289500237;494.000000;0.782225;0.686441
-25.823200226;47.132900238;7.197899818;494.000000;0.881916;0.771186
-25.173299789;46.977298737;7.416600227;494.000000;1.000994;0.796610
-25.815500259;46.625400543;7.449399948;494.000000;0.881715;0.750000
