//X;Y;Z;R;G;B;Scalar field;Illuminance (PCV)
-8.569915771;-0.667459607;9.697384834;25;23;26;0.195615;0.868644
-1.442726135;-8.454229355;18.440143585;108;109;140;0.618588;0.860169
-11.539502144;-5.946453094;11.349531174;87;86;102;0.276641;0.843220
-8.450723648;-9.159741402;13.735822678;90;101;129;0.437408;0.885593
-9.359591484;-4.826434612;12.996709824;116;118;141;0.997444;0.889831
-7.495557785;0.391088724;15.331095695;227;224;245;0.195615;0.894068
-5.389366150;-5.942661762;15.714683533;128;142;168;0.338815;0.830508
-10.054840088;-7.875336647;11.477661133;59;56;83;0.195615;0.877119
-4.906110287;-5.671737194;15.676227570;70;76;88;0.276641;0.847458
-0.673706532;4.357678413;15.927612305;178;184;210;0.195615;0.830508
-3.192786217;-0.716868401;15.042356491;157;149;170;0.437408;0.860169
-1.485168934;-3.545714378;15.306451797;104;107;138;0.479156;0.872881
-7.119758606;0.597854257;15.883289337;82;104;162;0.195615;0.843220
-8.227501869;1.316340208;20.045957565;73;67;79;0.276641;0.817797
-8.767297745;4.669522285;18.209648132;221;229;242;0.338815;0.911017
-9.014514923;-8.608179092;12.117162704;71;62;91;0.437408;0.911017
-8.706211090;0.377957106;21.308826447;131;149;187;0.338815;0.855932
-14.875905037;-8.580068588;17.055036545;56;58;73;0.276641;0.838983
-13.198358536;2.607301235;10.408291817;108;116;165;0.391230;0.881356
-8.751272202;0.514508128;21.377109528;152;169;187;0.479156;0.944915
-11.922952652;0.315673351;9.881616592;51;51;113;0.195615;0.843220
-9.732356071;0.987808228;20.995758057;91;88;133;0.586844;0.966102
-12.576432228;-2.701066017;14.985926628;128;121;137;0.276641;0.855932
-13.198029518;3.613745689;14.298256874;72;60;62;0.553282;0.838983
-12.175113678;-8.726730347;15.297980309;195;183;205;0.437408;0.881356
-7.664120197;-1.682899237;10.069903374;58;59;51;0.276641;0.775424
-1.329407692;5.148317337;16.509689331;134;141;157;0.437408;0.860169
-13.800070763;2.327533722;10.731003761;156;154;167;0.195615;0.877119
-2.914454937;-6.347224236;15.141101837;67;63;77;0.195615;0.834746
-14.739453316;3.642526627;11.500035286;100;105;137;1.205850;0.927966
-5.058770657;2.577610493;11.208487511;47;52;72;0.195615;0.830508
-17.764427185;-0.171101093;19.678335190;105;112;131;1.016444;0.872881
-2.954430103;-6.787688732;19.686609268;84;83;127;0.731924;0.957627
-12.313635826;-1.290709972;11.301742554;129;128;160;0.276641;0.881356
-3.949958563;-6.340587139;15.398612976;94;83;117;0.437408;0.868644
-18.633476257;-1.205420494;12.524980545;192;197;217;0.338815;0.936441
-1.640003204;-3.303300858;14.469336510;138;142;167;0.276641;0.894068
-7.382841110;0.353349090;13.924226761;109;123;132;0.437408;0.830508
-8.694452286;-0.538133025;9.703351021;10;6;5;0.195615;0.813559
-5.117457390;3.385530710;16.169061661;220;225;245;0.195615;0.805085
-8.640633583;4.830533504;18.985580444;108;112;139;0.479156;0.906780
-4.522377491;-4.350626945;18.032945633;222;227;247;0.586844;0.872881
-7.052672386;-9.164093018;15.160375595;41;28;58;0.586844;0.881356
-9.680282593;-3.611748219;20.071601868;80;90;81;0.338815;0.881356
-9.644834518;-9.486852646;11.623083115;180;179;197;0.586844;0.902542
-13.510101318;-7.695789814;16.088684082;59;60;78;0.437408;0.838983
-0.349683136;-7.382481098;15.411231995;183;194;226;0.437408;0.868644
-9.387345314;1.270034075;20.715570450;131;154;196;0.586844;0.902542
-17.792295456;0.034701824;18.703962326;181;188;206;0.437408;0.940678
-9.114813805;5.342595100;17.704362869;99;100;131;0.338815;0.838983
-1.202685595;2.518929482;17.276763916;85;84;100;0.276641;0.898305
-14.611745834;-3.452332497;14.408873558;193;192;210;0.276641;0.885593
-7.551841259;1.061474681;21.085409164;111;115;140;0.195615;0.847458
-7.371518135;2.319644451;20.613515854;56;57;52;0.586844;0.923729
-14.107563019;2.943929672;10.182791710;190;211;232;0.195615;0.826271
-14.648130417;-9.774316788;17.722255707;85;80;121;0.276641;0.855932
-10.575481415;-8.722022057;11.751185417;177;173;190;0.338815;0.796610
-11.766709328;-1.423886538;15.035639763;166;162;195;0.705299;0.830508
-12.435905457;-6.150353432;16.989574432;97;103;129;0.648781;0.898305
-14.750302315;1.779872894;17.407003403;119;134;173;0.479156;0.847458
-1.412991524;-6.751102448;19.546178818;135;143;164;0.874816;0.936441
-15.852117538;0.632065535;15.861063004;86;99;81;0.997444;0.868644
-7.159016609;2.683662415;15.674491882;128;134;160;0.437408;0.847458
-11.321452141;4.078717232;17.567907333;108;93;100;0.195615;0.906780
-8.240880013;-0.522911906;8.985089302;52;58;82;0.338815;0.826271
-5.867283344;-4.468697548;15.455040932;159;165;191;0.276641;0.792373
-5.587808132;-5.067684174;12.244688988;201;201;225;0.195615;0.826271
-16.406618118;-0.069323063;13.904150009;128;118;153;0.276641;0.830508
-7.322138786;2.869177818;15.050802231;175;193;215;0.276641;0.864407
-13.651510239;-6.029757500;21.408885956;192;198;220;0.479156;0.894068
-16.967254639;-1.099756241;11.936567307;96;98;110;0.553282;0.872881
-12.257322311;-1.522247314;14.014318466;145;132;150;0.338815;0.851695
-12.200733185;5.294588566;20.248664856;112;119;148;0.479156;0.944915
-10.780662537;5.910259724;17.010314941;140;132;147;0.437408;0.881356
-12.978892326;-3.404069901;17.179811478;116;120;132;0.195615;0.915254
-13.408674240;-4.025425434;20.785797119;126;131;153;0.648781;0.898305
-19.788469315;0.005941629;12.243066788;87;94;113;0.338815;0.919492
-2.553706884;2.557202816;16.324356079;56;55;89;0.391230;0.851695
-1.413140059;-4.688050270;18.223796844;91;113;127;0.437408;0.822034
-2.337371826;-7.140249252;14.709569931;180;191;219;0.276641;0.906780
-12.216875076;-8.230371475;15.079390526;138;134;159;0.437408;0.843220
-10.528357506;-6.672000885;13.597839355;175;182;210;0.195615;0.813559
-13.209966660;-3.664542198;20.674625397;74;76;97;0.391230;0.889831
-13.885219574;-8.854699135;15.182683945;70;67;84;0.195615;0.872881
-7.024352551;-6.357472420;13.172743797;160;169;202;0.437408;0.855932
-9.772749901;-1.544532180;12.794570923;118;113;94;0.338815;0.868644
-6.993766785;0.570507526;16.133853912;48;51;70;0.195615;0.881356
-5.100386620;3.631340504;11.736134529;167;184;230;0.195615;0.911017
-9.523107529;-3.688919067;9.526358604;95;100;129;0.195615;0.771186
-16.535161972;-1.636331081;17.382776260;203;198;218;1.157273;0.957627
-7.690814018;0.005682468;21.032094955;122;146;194;0.479156;0.902542
-12.626507759;0.770045280;10.011575699;244;248;249;0.276641;0.885593
-17.187095642;2.541254997;19.680852890;67;51;52;0.391230;0.898305
-19.516242981;-0.839642167;12.764527321;141;146;165;0.276641;0.894068
-10.720153809;1.722383738;18.133756638;92;96;134;0.479156;0.902542
-10.234340668;-4.359365463;10.454897881;48;53;46;0.195615;0.885593
-10.712627411;6.510975838;16.137586594;116;128;152;0.437408;0.860169
-3.083916187;0.280443668;15.456026077;151;146;178;0.338815;0.826271
-3.244001389;-6.734392166;12.550765991;131;123;147;0.391230;0.881356
-15.583496094;-0.196213007;8.051878929;196;170;205;0.195615;0.894068
-9.726537704;4.895673275;17.547784805;82;72;81;0.437408;0.902542
-6.712662220;0.940789580;19.645866394;133;146;152;0.479156;0.911017
-7.672765732;-7.613152027;15.004479408;168;164;191;0.586844;0.872881
-11.003410339;-7.606041908;16.358186722;185;182;227;0.731924;0.898305
-13.963867188;-9.345830917;17.859954834;55;54;72;0.276641;0.927966
-6.749931812;-0.367865443;16.251379013;138;149;133;0.648781;0.898305
-7.007643700;2.050224781;20.219015121;85;96;98;0.648781;0.805085
-3.214856148;-7.275720119;15.470472336;41;33;44;0.276641;0.872881
-14.845142365;1.867408752;17.456602097;84;87;122;0.338815;0.855932
-12.251792908;-5.685631275;21.249666214;208;210;233;0.806540;0.940678
-12.373422623;-3.776866913;16.084327698;109;100;127;0.586844;0.936441
-9.557256699;6.172054768;16.788667679;39;52;22;0.195615;0.826271
-11.682235718;1.855465651;17.989509583;191;183;206;0.276641;0.872881
-8.607937813;-8.503233910;13.116896629;106;111;133;0.276641;0.809322
-9.005480766;-6.891235352;19.116495132;62;53;84;0.874816;0.936441
-9.786439896;-5.922494888;14.237094879;201;199;220;0.618588;0.906780
-1.043773174;3.401301861;17.424165726;161;162;190;0.195615;0.881356
-7.591600418;-1.829314232;10.422926903;102;84;98;0.195615;0.826271
-10.835606575;-8.597495079;15.190965652;135;154;187;0.195615;0.911017
-8.283871651;-3.938392639;20.400745392;212;205;221;0.705299;0.919492
-17.828693390;0.845762491;10.296395302;195;194;210;0.276641;0.902542
-3.146513462;4.415844440;17.262580872;233;235;248;0.917515;0.978814
-8.446586609;1.657602310;20.681030273;82;76;78;0.437408;0.800847
-8.408020973;4.072963715;20.006916046;137;148;152;0.195615;0.923729
-12.762899399;3.447339535;17.373098373;102;109;137;0.618588;0.851695
-4.200390339;0.675502181;10.332622528;52;60;39;0.195615;0.860169
-12.054608345;-0.514664650;13.758742332;143;166;200;0.195615;0.843220
-3.505047798;-3.838910580;16.819623947;46;48;37;0.338815;0.855932
-17.057432175;-1.145460606;14.374558449;199;195;222;0.586844;0.855932
-1.826322317;-7.966332912;19.012226105;165;171;205;0.479156;0.860169
-1.905888796;-5.168738365;13.494686127;85;84;92;0.195615;0.826271
-13.074857712;-9.945022583;15.777017593;89;97;108;0.437408;0.923729
-4.799930096;-7.184496880;12.770303726;204;212;235;0.276641;0.855932
-5.293187141;0.360029221;10.210357666;163;162;193;0.195615;0.898305
-10.663098335;-4.482991695;19.696161270;118;145;198;0.618588;0.881356
-11.916549683;-2.350110054;16.035167694;81;88;72;0.338815;0.898305
-10.605062485;-4.161854744;10.120597839;42;69;34;0.391230;0.834746
-12.016907692;2.564198494;9.315399170;81;72;75;0.195615;0.855932
-9.473874092;-0.113712668;20.876728058;93;95;118;0.648781;0.898305
-12.354571342;1.331280947;18.072578430;134;140;172;0.586844;0.915254
-11.162656784;-0.543596148;15.513851166;91;92;140;0.437408;0.894068
-11.272459030;1.152380228;17.220649719;122;144;181;0.391230;0.868644
-8.370964050;-8.493959427;15.118824959;81;67;92;0.338815;0.872881
-9.565967560;0.461919665;20.555450439;111;127;161;0.195615;0.855932
-6.939509869;-6.712515831;13.749852180;143;142;174;0.276641;0.843220
-7.436429977;0.353479505;12.874136925;133;136;115;0.391230;0.889831
-6.048193455;-4.246066093;15.864734650;230;228;241;0.479156;0.872881
-13.725117683;-2.678581238;12.566902161;55;55;53;0.338815;0.851695
-6.199611664;-4.698967934;11.981126785;112;120;156;0.195615;0.838983
-1.508957386;-4.253397942;13.785532951;131;132;163;0.338815;0.847458
-8.038335800;0.409852743;14.931063652;121;131;158;0.437408;0.868644
-9.357739449;0.962824106;20.654119492;101;104;113;0.195615;0.809322
-16.759431839;2.816991806;9.354465485;107;113;137;0.437408;0.894068
-8.398838997;2.280196667;20.540315628;122;128;152;0.276641;0.864407
-7.668087006;1.640927076;15.365318298;72;72;84;0.276641;0.872881
-9.135634422;2.020244122;20.482179642;139;152;169;0.195615;0.868644
-1.263401031;-8.151854515;19.378761292;169;173;200;0.896420;0.953390
-4.004818916;1.593637466;17.726394653;163;183;236;1.053418;0.966102
-13.813243866;-2.164567471;12.581254959;88;88;88;0.648781;0.877119
-8.619332314;5.783448219;19.264457703;135;144;159;0.195615;0.932203
-12.843518257;-5.419233322;21.468957901;84;80;107;0.806540;0.927966
-14.624599457;-10.001302719;17.944887161;105;105;113;0.437408;0.957627
-6.543639183;1.257127523;15.233548164;100;86;111;0.391230;0.834746
-8.818088531;-0.235169411;9.750723839;191;197;223;0.195615;0.843220
-8.495313644;-6.686306953;19.011384964;197;195;217;1.053418;0.932203
-14.505602837;1.857268333;10.179671288;130;131;152;0.338815;0.847458
-11.798805237;3.899899483;15.273351669;115;116;137;0.437408;0.864407
-4.519054890;2.884847164;16.788490295;178;183;203;0.479156;0.847458
-9.675923347;-3.745169640;10.337610245;56;57;52;0.195615;0.762712
-11.948876381;-7.010392189;16.398052216;172;173;217;0.618588;0.906780
-8.640160561;-0.704714179;7.907127857;6;7;2;0.276641;0.838983
-2.206513405;-6.420363903;17.003259659;95;90;131;0.195615;0.915254
-12.251959801;1.711510301;18.432012558;129;147;195;0.874816;0.974576
-7.835799217;-8.184815407;15.319469452;183;177;203;0.195615;0.894068
-14.003906250;2.432969809;17.638233185;148;137;167;0.553282;0.927966
-4.494300842;-5.151644707;18.295795441;135;156;183;0.806540;0.902542
-9.047945976;1.625060797;20.194847107;125;132;158;0.195615;0.779661
-9.510967255;-8.780094147;11.669047356;80;76;91;0.195615;0.830508
-13.873876572;-10.534442902;17.218410492;113;111;132;0.391230;0.881356
-11.830715179;-5.926398754;16.296396255;61;69;48;0.437408;0.885593
-19.484399796;0.198377371;12.715728760;147;149;172;0.195615;0.919492
-14.258082390;-6.351699352;21.288433075;118;134;168;0.553282;0.953390
-12.497396469;-5.660560608;21.739265442;124;134;144;1.252546;0.995763
-9.287322998;-2.994788885;9.621836662;51;51;75;0.338815;0.826271
-18.162086487;1.411618471;17.926141739;56;51;57;0.195615;0.906780
-12.057939529;4.970653057;15.774368286;90;103;155;0.437408;0.834746
-7.331173897;1.156592488;11.660029411;60;68;87;0.338815;0.860169
-7.677725792;2.237387180;20.349246979;76;70;70;0.391230;0.745763
-5.255637169;-4.401361942;17.647949219;171;175;204;0.276641;0.868644
-1.746412277;3.792642832;17.322690964;186;197;219;0.553282;0.889831
-7.676952362;-1.951482773;21.302804947;138;120;160;1.123721;0.923729
-9.839517593;-8.428692818;14.191030502;226;229;248;0.391230;0.860169
-1.336674452;-3.508136749;14.515228271;57;56;87;0.195615;0.894068
-15.840201378;-0.604863167;15.257107735;113;121;144;0.479156;0.822034
-12.833762169;-6.263907433;16.686361313;119;120;168;0.195615;0.872881
-3.210995197;-8.582811356;13.761043549;168;171;202;0.437408;0.885593
-2.333004951;-3.497816563;14.875186920;139;135;152;0.437408;0.906780
-10.967571259;-7.136189461;20.250408173;111;99;135;0.705299;0.953390
-12.335525513;-9.728483200;14.694108963;153;164;184;0.586844;0.923729
-11.917765617;-2.083215714;15.634914398;222;210;230;0.437408;0.860169
-12.528880119;-3.482481956;15.417072296;74;57;89;0.479156;0.864407
-6.704868317;-2.032832146;10.606772423;46;54;67;0.195615;0.881356
-7.781286240;1.861338019;20.880123138;111;121;172;0.391230;0.838983
-3.956203699;-5.117371082;18.280153275;101;119;139;0.618588;0.923729
-13.287013054;-9.561881065;15.114767075;155;162;191;0.195615;0.822034
-7.653563976;1.708116531;15.613140106;35;33;44;0.195615;0.919492
-14.984379768;2.594105005;12.789761543;100;88;110;0.276641;0.826271
-15.167490959;-9.592337608;17.439962387;69;81;121;0.195615;0.872881
-0.367969751;3.217468977;17.108932495;149;151;172;0.553282;0.906780
-12.762659073;1.845154047;17.788745880;121;143;193;0.806540;0.889831
-12.576935768;-5.810997963;21.668251038;94;93;111;1.053418;0.970339
-12.733549118;-1.055907369;14.301573753;116;140;176;0.731924;0.923729
-4.989145279;-0.436866760;15.771335602;126;115;147;0.437408;0.817797
0.938351631;-5.113374233;17.379259109;144;150;184;0.618588;0.970339
-7.312403679;-7.291459084;13.326988220;121;118;129;0.195615;0.864407
-7.644696236;2.710404873;19.800964355;102;100;105;0.195615;0.813559
-7.637742043;-1.372489929;21.883708954;125;138;172;1.123721;1.000000
-2.093545437;-7.801364899;19.264598846;147;152;171;0.437408;0.919492
-7.374361038;1.878694892;15.145856857;51;58;87;0.195615;0.762712
-14.614621162;2.727697372;10.086662292;109;130;185;0.276641;0.817797
-17.158971786;1.250499725;20.395700455;102;89;96;0.648781;0.919492
-3.521100521;1.002090693;10.432846069;115;103;103;0.276641;0.843220
-8.774716377;-1.441209674;9.145792961;10;17;25;0.338815;0.881356
-7.091801167;-2.651540041;9.986700058;139;145;159;0.195615;0.805085
-12.915538788;3.067622185;16.106456757;54;61;87;0.586844;0.889831
-7.094347477;1.622995615;15.852705002;80;85;105;0.195615;0.881356
-1.948896646;-1.156269073;14.992302895;189;193;202;0.195615;0.877119
-8.881837845;-0.911953092;10.242839813;62;69;113;0.195615;0.834746
-11.879291534;-7.756334305;14.623886108;188;187;219;0.276641;0.838983
-7.914608002;3.139319658;19.499067307;128;135;154;0.276641;0.834746
-7.560257912;-3.849947929;11.490731239;44;40;41;0.276641;0.826271
-9.549928665;-6.616161823;13.886617661;191;183;206;0.338815;0.838983
-10.220993042;-7.000512600;11.568134308;84;93;100;0.276641;0.889831
-7.950537205;1.166591287;14.242757797;102;107;149;0.276641;0.788136
-14.247375488;2.789307594;12.216360092;136;130;140;0.195615;0.826271
-9.929189682;-1.139182687;13.270403862;64;64;64;0.195615;0.838983
-5.078692436;2.374587774;16.578649521;108;118;153;0.276641;0.868644
-10.585339546;-7.677801132;16.081998825;111;115;152;1.053418;0.881356
-6.601148605;-1.323573470;21.824802399;103;106;141;1.173689;0.991525
-7.728978157;-6.639605999;14.048244476;185;190;212;0.586844;0.860169
-19.554977417;-0.965221882;11.722373962;55;59;71;0.276641;0.864407
-11.065114975;-7.794362545;17.980791092;167;176;191;1.053418;0.974576
-17.575672150;2.110514164;20.091257095;130;122;143;0.276641;0.898305
-7.092265606;-6.806459427;14.279583931;125;124;142;0.479156;0.889831
-4.296391964;1.758690476;17.258293152;114;108;122;0.618588;0.936441
-8.698946953;-3.837110043;20.375894547;141;144;177;0.618588;0.898305
-5.848789692;3.150537014;11.228633881;163;166;185;0.195615;0.843220
-8.247123718;1.485936165;20.182500839;108;104;119;0.276641;0.800847
-1.114820480;-7.994050026;18.994894028;142;149;167;0.677629;0.872881
-15.433761597;-0.956544876;15.492792130;194;207;224;0.276641;0.864407
-19.414133072;0.229778290;18.523738861;135;147;199;0.586844;0.915254
-12.393941879;4.345054626;18.080028534;96;112;163;1.053418;0.923729
-8.989749908;5.756414413;17.191953659;147;144;173;0.276641;0.838983
-4.174783707;-4.143154144;18.148241043;162;162;190;0.437408;0.906780
-10.361111641;-8.859555244;11.461008072;116;103;147;0.195615;0.860169
-7.647863865;1.166628122;14.356280327;102;122;181;0.195615;0.822034
-17.384313583;1.202315807;20.637109756;89;72;64;0.677629;0.940678
-9.340663910;-1.690904617;9.316902161;98;95;122;0.731924;0.868644
-9.281139374;0.032387018;9.441193581;153;152;166;0.338815;0.860169
-11.197232246;3.936783314;15.137534142;101;112;106;0.195615;0.826271
-12.448920250;-4.642527103;17.285032272;73;72;67;0.437408;0.868644
-5.943038940;-4.503264904;16.542388916;121;119;141;0.806540;0.915254
-10.322087288;-0.155386806;15.686151505;82;77;84;0.276641;0.902542
-5.066715717;2.099130630;16.680545807;111;119;140;0.195615;0.877119
-7.253932476;-9.348155975;15.621555328;143;140;167;0.553282;0.915254
-13.741373062;-6.726158142;21.377969742;53;51;54;0.553282;0.932203
-12.759421349;-5.682185173;17.508176804;79;74;80;0.276641;0.957627
-6.658939838;0.002511024;16.500225067;132;122;149;0.479156;0.902542
-7.693012714;4.977601051;17.900247574;44;43;61;0.195615;0.940678
-12.434259415;-9.634615898;16.071706772;73;74;79;0.648781;0.953390
-5.991252899;2.301240206;14.313515663;154;141;151;0.195615;0.809322
-7.314864635;2.168029785;20.982069016;47;49;61;0.731924;0.923729
-13.909761429;-2.197744846;14.000705719;116;134;184;0.479156;0.817797
-7.930483341;2.382861614;20.484884262;128;138;174;0.195615;0.838983
-13.313116074;-6.186539650;16.109203339;93;90;117;0.195615;0.830508
-12.896279335;3.239278078;13.938149452;54;59;97;0.276641;0.779661
-4.858808517;-7.040781021;11.406488419;174;185;203;0.276641;0.855932
-8.032336235;1.591111302;21.139308929;120;132;172;0.731924;0.949153
-14.624950409;2.473050833;10.717370033;55;59;42;0.338815;0.877119
-1.218922138;-4.215361595;18.378784180;198;213;246;0.586844;0.885593
-18.105558395;1.710538864;20.702035904;176;178;199;0.618588;0.983051
0.985077977;-5.383429527;16.848764420;208;203;226;0.276641;0.923729
-8.568089485;-3.417846680;9.077997208;48;53;47;0.195615;0.851695
-11.072741508;-0.778050780;15.837265015;110;111;139;0.437408;0.923729
-15.912044525;-1.143800735;15.014668465;60;60;58;0.195615;0.838983
-12.784143448;-4.854928017;17.041673660;122;107;148;0.586844;0.898305
-2.323797226;0.231142044;15.143133163;235;230;234;0.276641;0.830508
-13.540120125;-4.254286766;20.851106644;127;126;157;0.618588;0.872881
-6.448002815;-4.146731853;12.865496635;29;21;34;0.276641;0.889831
-8.234500885;5.988541126;17.391284943;142;158;181;0.195615;0.877119
-12.456282616;-9.701193810;15.057053566;206;191;212;0.338815;0.894068
-12.642159462;1.371637344;12.318695068;104;109;129;0.276641;0.881356
-8.932210922;4.464345932;20.393699646;207;215;226;0.437408;0.944915
-9.848745346;-9.267518997;11.843472481;164;168;213;0.276641;0.847458
-12.318300247;-6.898070812;13.760692596;51;32;34;0.195615;0.822034
-15.848297119;-1.546708584;16.374494553;100;114;159;0.195615;0.906780
-1.130608559;-4.498282433;18.361637115;71;68;85;0.437408;0.817797
-11.312976837;-4.968355179;12.488123894;207;203;220;0.391230;0.830508
-11.792921066;5.282748699;15.447023392;94;99;139;0.276641;0.843220
-7.431331635;4.889334679;17.895185471;101;100;105;0.437408;0.923729
-12.343252182;3.612686634;16.225542068;140;138;141;0.437408;0.885593
-11.138115883;5.401915073;14.724698067;98;107;124;0.437408;0.805085
-7.244976997;2.260933876;19.839288712;70;88;136;0.195615;0.817797
-8.864161491;6.587745190;18.945001602;103;110;120;0.437408;0.923729
-10.128976822;-6.794130802;11.869489670;143;143;155;0.276641;0.872881
-2.132987738;-7.876438141;19.122610092;186;198;222;0.276641;0.872881
-6.175158024;-3.165355206;11.668592453;130;138;117;0.338815;0.855932
-3.762813568;0.950479746;10.676071167;78;74;73;0.195615;0.855932
-9.343664169;-7.806677341;12.300715446;66;64;67;0.437408;0.817797
-6.664177418;-1.505975604;21.808210373;107;119;145;1.189878;0.991525
-11.663923264;-8.241321564;14.766277313;160;154;180;0.195615;0.813559
-10.566480637;-8.930349350;11.765739441;215;212;229;0.276641;0.889831
-8.080573082;0.267692208;21.079114914;35;41;55;0.437408;0.851695
-5.250657558;1.477238178;16.406755447;135;141;175;0.338815;0.843220
-4.351876259;-3.517004490;17.385581970;157;158;179;0.276641;0.775424
-13.768010139;4.083779335;17.497983932;75;74;108;0.391230;0.919492
-2.817904472;-3.398002625;14.450608253;187;189;201;0.195615;0.877119
-7.053794384;-1.381392717;10.313611984;108;118;120;0.195615;0.822034
-18.784818649;2.698382854;18.974941254;114;100;91;0.276641;0.915254
-6.938338757;-3.182493448;12.338916779;86;85;103;0.391230;0.855932
-8.435831070;5.329204082;19.130086899;111;108;115;0.705299;0.932203
-15.334036827;-0.051606655;8.228241920;136;144;181;0.195615;0.936441
-7.497089863;-1.304531097;21.610500336;154;160;186;0.852665;0.966102
-18.385803223;0.601015091;12.562639236;106;101;131;0.276641;0.860169
1.253860474;-4.602269173;17.230533600;135;140;178;0.479156;0.961864
-3.586288452;1.875147462;10.205537796;172;183;215;0.195615;0.872881
-14.137638092;1.146927357;12.806951523;76;70;96;0.276641;0.805085
-13.942546844;3.222674370;11.845829010;54;59;55;0.276641;0.847458
-7.617957592;3.112562895;19.532751083;148;172;220;0.195615;0.860169
-12.380554199;-3.741685867;20.495193481;131;136;155;0.437408;0.911017
-3.452622890;-7.545762062;15.034789085;154;159;191;0.276641;0.885593
-8.886331558;-4.506691933;20.919998169;213;214;235;1.237177;0.983051
-14.947088242;3.621192932;17.385896683;104;108;145;0.479156;0.932203
-13.278084755;-3.820857048;17.732175827;154;152;176;0.195615;0.949153
-5.843184471;1.355897427;15.948724747;130;142;158;0.276641;0.817797
-10.993852615;5.538525105;17.327022552;131;146;211;0.479156;0.906780
-9.649993896;5.711521149;17.132190704;135;144;183;0.195615;0.877119
-10.868211746;2.580028534;17.178745270;146;165;198;0.391230;0.851695
-0.583755076;-6.367162704;19.280170441;98;108;135;0.677629;0.872881
-2.520014763;-8.478187561;18.376300812;137;115;154;0.731924;0.898305
-6.600944042;-0.214714646;8.570032120;37;31;75;0.338815;0.838983
-11.196046829;-5.341557026;11.273867607;15;28;36;0.276641;0.809322
-12.545475006;4.694066525;14.920719147;87;98;154;0.338815;0.838983
-6.369467258;2.976135731;16.113342285;186;195;224;0.437408;0.813559
-11.890368462;-1.752720237;11.858485222;77;104;173;0.195615;0.800847
-14.959892273;2.597046375;12.906337738;29;39;66;0.195615;0.838983
-11.637149811;-9.411149979;17.337282181;179;184;206;1.053418;0.932203
-10.557195663;6.477421284;16.089122772;90;100;112;0.276641;0.864407
-6.354639530;-0.908886433;21.415536880;186;199;234;0.829923;0.940678
0.045026422;-5.836294174;16.634552002;171;173;211;0.479156;0.919492
-13.030000687;1.655741453;17.783794403;211;196;225;0.806540;0.885593
-9.502906799;-0.527750969;14.273689270;172;183;228;0.195615;0.834746
-17.246095657;0.442017317;9.485670090;189;179;214;0.195615;0.826271
-13.286649704;3.987963915;14.034543037;64;77;96;0.276641;0.868644
-0.858503342;3.986202240;17.290180206;99;115;140;0.276641;0.885593
-18.176347733;0.832948685;19.085958481;59;58;63;0.618588;0.868644
-2.643851280;2.936344385;17.208848953;164;164;192;0.731924;0.911017
-11.019506454;-8.495904922;12.371089935;66;71;65;0.338815;0.906780
-7.124766350;2.626822472;20.233200073;110;112;135;0.479156;0.889831
-10.419410706;-3.906482220;9.696757317;2;15;0;0.276641;0.754237
-12.558127403;-5.732320309;18.362537384;133;119;155;0.437408;0.966102
-6.042434216;0.303671360;20.484653473;128;124;138;0.618588;0.877119
-6.874397755;-4.178864956;10.673273087;234;231;242;0.195615;0.851695
-3.124366283;3.488225937;16.591794968;92;103;148;0.195615;0.843220
-18.675956726;0.781782866;18.800571442;66;68;83;0.586844;0.898305
-7.363865852;0.776805639;16.094083786;157;151;163;0.437408;0.868644
-6.592040062;0.287016749;16.554109573;114;124;126;0.479156;0.898305
-13.682345390;-10.478405952;17.254949570;132;138;160;0.437408;0.889831
-6.582720280;-1.512301445;20.996225357;71;65;93;0.437408;0.919492
-7.507609367;1.456293344;14.883398056;84;82;103;0.195615;0.809322
-11.672403336;-8.743456841;17.958253860;227;213;226;0.958313;0.923729
-8.025291443;-1.478053570;21.503751755;163;161;200;0.705299;0.970339
-12.966027260;-6.105073452;19.148651123;77;62;69;0.195615;0.894068
-9.953741074;-0.544584870;14.640296936;99;108;137;0.276641;0.843220
-10.555372238;-8.959799767;14.556442261;158;156;193;0.276641;0.894068
-11.092658997;-0.387234330;15.543403625;89;94;134;0.195615;0.843220
-8.676358223;1.799419880;20.616685867;132;144;168;0.338815;0.783898
-16.261207581;-0.711805820;9.263336182;154;153;187;0.276641;0.860169
-9.943633080;-0.332831264;15.432109833;103;111;90;0.276641;0.851695
-8.031053543;1.218216896;14.586434364;108;101;83;0.276641;0.758475
-13.754766464;-2.593245029;12.275436401;179;178;209;0.276641;0.855932
-14.021617889;-8.490785599;17.689506531;176;184;205;0.705299;0.915254
-16.365032196;-1.754851341;16.745182037;144;136;173;0.437408;0.902542
0.510008097;-6.250656128;15.796060562;141;136;176;0.648781;0.936441
-3.654419422;-5.418481827;14.594876289;75;85;77;0.677629;0.843220
-8.894138336;-9.012140274;14.501743317;151;143;167;0.479156;0.864407
-12.042031288;3.229690552;15.289371490;142;155;197;0.276641;0.809322
-0.746932864;-3.717956066;17.560237885;139;138;169;0.437408;0.872881
-12.978802681;-5.642646313;16.486839294;155;151;188;0.338815;0.894068
-1.989498854;-3.468584538;15.370297432;68;76;99;0.195615;0.885593
-15.993528366;-2.044157028;16.077630997;54;58;61;0.276641;0.915254
-12.807664871;4.450659752;15.410863876;52;60;96;0.586844;0.864407
-17.612689972;1.029431105;17.553146362;207;209;188;0.391230;0.838983
-16.552146912;-0.504995704;15.077987671;99;116;168;0.437408;0.822034
-4.980505466;-6.211197376;13.448977470;168;170;195;0.195615;0.868644
-8.331398964;-4.809597015;16.875677109;174;190;226;0.586844;0.864407
-6.540226460;-2.187445402;9.743649483;79;88;69;0.195615;0.834746
-10.237963676;-7.116946220;11.519630432;176;191;212;0.276641;0.855932
-2.646494150;-4.587672234;12.668725014;181;184;215;0.195615;0.877119
-12.603031158;-1.517282486;12.237412453;77;66;74;0.586844;0.826271
-10.070552826;-7.134150982;14.357120514;179;186;215;0.553282;0.902542
-0.388281584;-4.809536934;17.606775284;95;102;118;0.338815;0.923729
-12.550841331;-3.168721676;20.168706894;146;136;171;0.195615;0.885593
-11.599241257;2.393740892;9.555227280;192;187;167;0.195615;0.868644
-7.351054668;2.082990885;20.448728561;107;120;165;0.437408;0.805085
-1.968375206;-9.234535217;17.602277756;202;208;234;0.437408;0.940678
-5.561603546;-5.973150253;12.470022202;48;53;59;0.195615;0.805085
-3.666984081;3.377015591;11.310345650;146;147;175;0.195615;0.864407
-14.491562843;2.573355675;10.164107323;130;130;154;0.195615;0.817797
-16.793663025;-1.656946182;11.351336479;143;147;159;0.276641;0.889831
-7.849971771;-0.845109463;20.739400864;98;116;152;0.195615;0.911017
-11.789296150;0.923107386;17.358129501;117;139;188;0.195615;0.872881
-13.332434654;-9.682811737;15.027742386;39;26;46;0.195615;0.809322
-14.247206688;2.701401711;17.561157227;130;147;191;0.338815;0.915254
-16.977331161;2.165035963;10.376478195;163;160;179;0.195615;0.940678
-7.389641762;-3.498880386;16.873125076;145;138;156;0.874816;0.923729
-8.511763573;-0.735464454;7.656067371;17;25;1;0.195615;0.860169
-11.155804634;5.458588600;14.985308647;103;104;99;0.195615;0.830508
-2.618571758;2.793579817;17.017122269;182;185;204;0.618588;0.864407
-1.689940453;-2.013224840;16.331279755;107;107;133;0.338815;0.834746
-11.538180351;-8.857913971;17.537807465;111;100;140;0.806540;0.919492
-12.747955322;-7.401000977;16.851127625;123;112;142;0.479156;0.847458
-3.620736122;-3.677205324;16.988477707;65;60;64;0.195615;0.822034
-10.600575447;-7.803514004;14.461688042;131;122;167;0.195615;0.826271
-7.572826862;1.332942247;12.425973892;92;112;173;0.437408;0.894068
-9.817624092;-4.807055473;12.607787132;40;39;45;0.479156;0.923729
-5.581417084;3.582615137;16.395448685;201;189;201;0.338815;0.872881
-10.715246201;-7.974713326;14.708411217;170;191;212;0.276641;0.843220
-10.982282639;-5.847543716;13.553765297;235;229;243;0.276641;0.860169
-12.927284241;-6.148702621;14.632272720;43;44;46;0.195615;0.834746
-17.274185181;1.910737276;10.201003075;149;154;173;0.276641;0.817797
-17.535312653;-0.602564573;14.322059631;122;122;156;0.338815;0.847458
-3.536930561;3.340742111;11.162379265;149;155;191;0.195615;0.855932
-3.812074661;2.177501678;16.793895721;232;220;234;0.276641;0.817797
-5.729063988;-0.050475955;14.391318321;133;154;197;0.437408;0.864407
-10.887247086;3.993992329;16.650163651;183;189;213;0.195615;0.864407
-9.845375061;5.410733223;17.962709427;78;72;74;0.586844;0.927966
-8.033958435;2.344126940;14.198230743;120;131;159;0.618588;0.792373
-14.976131439;1.416787863;12.448284149;145;137;161;0.437408;0.817797
-4.602628708;-5.018353939;18.398265839;57;63;89;0.896420;0.940678
-1.402662277;-8.488624573;19.022699356;112;121;152;0.852665;0.919492
-4.781761169;1.875737667;16.861286163;156;155;195;0.276641;0.872881
-8.113129616;-8.242194176;16.028617859;205;215;240;0.553282;0.940678
-17.614595413;0.630580425;17.547794342;106;100;100;0.195615;0.826271
-9.081292152;2.344888926;20.276336670;131;150;180;0.195615;0.809322
-18.948835373;1.036727428;20.256198883;154;148;182;0.958313;0.919492
-9.703044891;-0.273233414;15.316758156;237;226;242;0.195615;0.805085
-1.782468319;2.959312916;17.386302948;193;199;225;0.586844;0.911017
-12.079401970;-2.977931023;16.447320938;85;74;88;0.705299;0.898305
-19.693355560;-1.000091314;12.241728783;56;60;61;0.338815;0.860169
-1.396486044;3.867501259;17.020257950;88;89;109;0.276641;0.800847
-8.912948608;5.044850349;18.059036255;120;117;110;0.391230;0.872881
-0.466803789;-4.436123848;17.433244705;96;98;136;0.195615;0.906780
-9.103805542;0.659717560;20.977096558;121;136;159;0.437408;0.860169
-13.085700989;1.627618313;12.333849907;131;139;178;0.437408;0.817797
-11.582227707;-1.107711434;13.722930908;109;127;177;0.195615;0.838983
-10.984231949;2.562860012;17.361589432;136;154;190;0.195615;0.847458
-7.432871819;0.522062659;12.486665726;80;84;109;0.195615;0.855932
-12.330430984;-4.449331284;17.782396317;88;49;50;0.586844;0.932203
-12.764341354;2.406494141;13.635358810;101;100;106;0.195615;0.877119
-1.654837132;-3.740475178;14.018466949;87;83;108;0.195615;0.881356
-17.477556229;0.638688803;15.830060959;255;230;215;0.195615;0.927966
-8.004653931;0.907596707;14.554924011;48;45;66;0.391230;0.830508
-11.107658386;2.521087170;9.122515678;181;178;207;0.276641;0.855932
-12.891965866;-6.284525871;16.913022995;97;114;157;0.276641;0.877119
-0.050839275;-5.480904579;16.480344772;99;112;144;0.276641;0.911017
-4.779091835;3.565651894;16.279262543;133;156;187;0.437408;0.847458
-3.963053465;-6.716218472;17.989391327;171;187;213;1.053418;0.932203
-14.146125793;-2.624188900;12.625914574;67;60;67;0.195615;0.860169
-12.552662849;-5.186002254;21.545282364;172;171;203;0.997444;0.995763
-6.196164131;-5.855271816;12.725815773;67;77;87;0.276641;0.838983
-1.680288315;-7.918642998;13.556336403;138;144;166;0.391230;0.881356
-6.223015308;-5.726221561;12.557997704;4;11;27;0.195615;0.800847
-0.803611815;-7.367265701;18.889347076;124;129;149;0.195615;0.830508
-10.221937180;-0.017552018;15.388729095;136;151;172;0.276641;0.881356
-14.703788757;-7.878198147;17.222705841;88;112;156;0.731924;0.940678
-19.633327484;-1.284134150;12.317225456;97;99;137;0.437408;0.919492
-10.172814369;-8.833216667;11.628739357;34;33;38;0.195615;0.864407
-5.869364738;2.596419096;16.223812103;81;85;110;0.276641;0.860169
-6.285905838;1.721087098;13.868199348;85;94;99;0.195615;0.783898
-11.157627106;2.608086824;17.933639526;120;129;162;0.391230;0.855932
-12.809996605;-6.869552612;20.583686829;146;134;156;0.276641;0.906780
-7.912696362;-8.216548920;15.834722519;178;178;204;0.276641;0.911017
-16.306026459;2.448132515;9.900904655;0;0;11;0.437408;0.919492
-7.344273090;-6.192055702;13.552283287;151;155;190;0.618588;0.788136
-9.279046059;-0.507869124;19.955047607;129;149;186;0.276641;0.838983
-19.161048889;1.812623024;20.145849228;118;124;160;0.997444;0.949153
-12.303146362;-9.752801895;17.359098434;173;192;248;0.829923;0.894068
-10.456638336;-8.685098648;12.797079086;202;207;229;0.276641;0.902542
-7.128046036;-5.335158825;12.107535362;78;84;72;0.276641;0.834746
-8.613439560;1.338794708;20.538579941;131;156;210;0.338815;0.745763
-9.743711472;-3.839758158;19.907711029;175;168;199;0.195615;0.898305
-18.783596039;1.853282928;19.894258499;86;90;119;0.731924;0.894068
-4.642132759;1.860699177;16.435268402;141;133;154;0.195615;0.847458
-12.701805115;2.758457899;15.626920700;108;120;118;0.276641;0.885593
-5.420758247;-1.634903908;15.941732407;212;216;227;0.437408;0.868644
-15.823216438;-1.599876404;14.771959305;58;32;33;0.195615;0.834746
-8.838088989;5.115125656;17.543983459;109;124;157;0.195615;0.872881
-2.705749989;-2.323611021;16.680227280;188;193;213;0.338815;0.868644
-14.391381264;-8.051498413;16.816322327;137;131;157;0.338815;0.889831
-14.127634048;-2.643961906;12.201941490;91;97;111;0.195615;0.817797
-10.608877182;-8.851682663;14.815728188;140;137;148;0.195615;0.830508
-11.047922134;6.509629250;16.372940063;202;210;231;0.276641;0.868644
-9.150350571;-1.498329639;9.774576187;99;78;87;0.437408;0.872881
-14.394042015;-2.681944370;14.829105377;175;173;194;0.586844;0.902542
-17.623332977;0.384119034;17.462743759;91;72;91;0.195615;0.864407
-10.420938492;-7.349804878;14.265461922;221;220;236;0.437408;0.834746
-6.722206116;2.122889519;19.465826035;44;37;71;0.618588;0.847458
-2.766140938;2.640565157;16.385732651;173;181;184;0.276641;0.838983
-7.815523148;-4.277297020;12.285502434;194;188;202;0.479156;0.860169
-1.675323009;3.188072681;17.846912384;81;77;112;0.852665;0.932203
-15.231081963;3.323647022;17.307317734;135;150;189;0.586844;0.919492
-2.568397522;0.842487097;14.923837662;213;215;238;0.479156;0.838983
-9.264089584;-0.000145078;21.273620605;139;165;216;0.618588;0.915254
-4.908812523;0.274440289;10.391432762;169;163;199;0.338815;0.868644
-13.882404327;2.078001022;11.125771523;136;130;158;0.195615;0.902542
-8.000832558;2.988446236;19.768884659;99;95;130;0.195615;0.830508
-4.846538544;4.076042175;11.662374496;114;104;131;0.195615;0.864407
-13.956010818;-2.742068768;14.362491608;68;74;90;0.437408;0.805085
-13.482904434;3.478359461;17.866769791;234;225;244;0.391230;0.944915
-9.132543564;5.517059803;18.275119781;122;111;109;0.705299;0.902542
-2.867065907;-6.544098377;19.506587982;156;161;183;0.586844;0.940678
-10.930562973;-0.757835388;15.802339554;251;241;249;0.195615;0.843220
-13.973919868;-10.551095963;17.602277756;95;94;108;0.338815;0.881356
-11.584139824;1.591452837;17.973487854;118;135;181;0.338815;0.838983
-15.564159393;0.192843914;14.722885132;98;89;142;0.437408;0.877119
-7.861307621;5.771555424;18.171493530;66;71;91;0.391230;0.877119
-12.396671295;-0.444105148;13.855195045;108;101;142;0.276641;0.860169
-10.115335464;-4.364294052;19.900711060;230;226;253;0.437408;0.889831
-13.953800201;2.510350227;12.210884094;68;60;73;0.195615;0.860169
-12.624857903;-4.538563251;17.338275909;93;89;124;0.338815;0.889831
-14.703762054;-8.205649376;17.262067795;58;73;114;0.479156;0.889831
-9.397277832;-3.533332825;11.045022011;81;95;122;0.618588;0.843220
-12.316503525;4.638409615;15.217912674;35;43;62;0.195615;0.834746
-9.220705032;0.588292599;20.779415131;112;102;136;0.195615;0.822034
-3.187981606;-8.360303879;14.031907082;219;194;226;0.195615;0.851695
-2.140829563;-5.292426109;13.900616646;162;171;200;0.391230;0.843220
-0.618199348;-6.276515484;19.454299927;122;131;148;0.806540;0.949153
-4.767724991;4.191130638;11.702638626;56;55;51;0.195615;0.881356
-9.208311081;-7.486946106;13.502644539;79;77;98;0.437408;0.830508
-9.250643730;-3.316024303;10.675245285;63;62;76;0.276641;0.843220
-11.301387787;3.587097168;16.364044189;107;105;118;0.553282;0.868644
-7.076134682;-6.532278538;13.148846626;90;97;115;0.276641;0.805085
-13.098890305;0.983373404;17.196420670;114;134;184;0.391230;0.851695
-12.765579224;5.309638977;16.258251190;249;241;239;0.437408;0.911017
-6.394844532;-1.885208130;9.577160835;192;202;227;0.195615;0.851695
-7.604789734;-1.374059677;10.841746330;128;112;148;0.437408;0.902542
-13.803728104;-9.110195160;15.327257156;183;188;220;0.195615;0.864407
-12.745870590;4.016296864;14.007657051;48;56;45;0.276641;0.826271
0.450670242;-5.924624920;16.433423996;114;121;149;0.648781;0.902542
-18.748214722;1.871309519;9.521519661;112;114;137;0.195615;0.822034
-10.645666122;6.363909721;15.909740448;157;164;183;0.338815;0.826271
-3.333518028;-8.382089615;14.070045471;99;73;110;0.338815;0.911017
-6.000112057;-0.073149204;19.784896851;102;90;112;0.276641;0.894068
-1.109684229;-3.920957804;17.727008820;121;120;160;0.195615;0.813559
-7.500715733;-4.731225967;11.449914932;174;168;194;0.195615;0.847458
-9.120937347;6.260589600;18.016088486;70;65;61;0.731924;0.927966
-12.557041168;-7.730450153;21.181600571;97;105;107;0.677629;0.932203
-15.533470154;2.639418125;17.138914108;190;192;217;0.391230;0.894068
-9.735373497;0.253929973;14.358119965;140;153;187;0.437408;0.822034
-16.830839157;-0.940606117;10.312774658;88;90;102;0.195615;0.885593
-12.181926727;1.008067131;10.077819824;139;143;170;0.195615;0.872881
-9.255413055;-5.451310158;12.293926239;133;128;135;0.195615;0.864407
-13.174394608;-7.843325615;16.710266113;84;95;127;0.437408;0.894068
-6.846286774;0.462626815;16.765907288;100;105;109;0.618588;0.944915
-11.502945900;4.609636307;16.496694565;54;65;97;0.618588;0.860169
-11.174322128;-6.066435337;11.677669525;77;104;125;0.276641;0.830508
-4.076369286;-6.713504791;14.463465691;119;121;142;0.276641;0.885593
-12.337661743;-0.875430465;13.906054497;38;43;72;0.391230;0.843220
-16.727380753;-0.996857643;11.212995529;102;119;145;0.195615;0.847458
-7.756073952;-6.652607441;13.690029144;190;189;221;0.553282;0.830508
-13.810091972;-2.331782341;13.937062263;237;235;248;0.479156;0.817797
-12.938185692;2.231055498;16.831825256;230;224;234;0.479156;0.868644
-11.924039841;-6.513466358;13.898527145;179;183;218;0.195615;0.830508
-13.801355362;-3.671661377;20.518455505;106;105;121;0.705299;0.877119
-12.101706505;3.100117445;15.418205261;148;159;189;0.195615;0.868644
-16.569927216;-0.489741445;14.029747009;78;89;117;0.195615;0.822034
-3.349102020;-8.057085991;13.999091148;242;234;245;0.276641;0.911017
1.704531670;-4.982054234;16.313745499;82;86;98;0.553282;0.911017
-2.470229149;-0.340545177;15.268215179;195;197;212;0.276641;0.834746
-11.985939026;-1.579525948;12.115308762;175;169;183;0.276641;0.783898
-12.164787292;-7.390046120;14.681514740;81;71;108;0.195615;0.872881
-10.335632324;-3.941872835;9.895430565;40;41;43;0.195615;0.851695
-8.518613815;0.318891048;8.944685936;172;169;198;0.195615;0.851695
-11.521535873;5.905016422;19.395149231;118;125;143;0.479156;0.932203
-6.228596687;1.030288696;20.257482529;140;146;172;0.705299;0.902542
-17.957351685;-0.001378059;17.656034470;135;140;159;0.195615;0.919492
-10.794844627;1.847229719;18.056636810;114;125;157;0.276641;0.826271
-10.824810982;-5.433417320;11.813674927;117;115;136;0.195615;0.843220
-6.468365192;-6.577504635;12.492110252;113;123;150;0.195615;0.851695
-18.996912003;1.054666519;20.143465042;205;198;229;1.071426;0.919492
-9.343171120;-0.098805308;20.305221558;95;114;157;0.338815;0.822034
-6.487049580;2.674637318;14.380638123;176;188;210;0.195615;0.822034
-12.298652649;4.840379715;15.383001328;149;155;181;0.195615;0.868644
-5.698424339;-4.642129898;17.812854767;134;147;181;0.648781;0.894068
-2.642905235;0.587903023;14.677503586;104;97;113;0.195615;0.809322
-15.680885315;-0.187041283;8.320409775;60;52;75;0.195615;0.906780
-16.741575241;-0.728132248;11.481949806;128;134;146;0.338815;0.919492
-2.954818726;-7.493033886;17.051158905;169;172;207;0.586844;0.932203
-7.684260845;-7.035535336;13.039661407;217;219;231;0.195615;0.872881
-1.730173111;-9.016769409;17.218318939;166;162;185;0.195615;0.877119
-7.208706856;-3.659643650;15.556101799;27;17;26;0.829923;0.822034
-2.445945263;-7.408202648;12.158356667;87;78;95;0.391230;0.834746
-8.619412422;-5.791874886;11.491369247;112;109;136;0.437408;0.860169
-8.198176384;-3.858273983;10.719614983;29;29;41;0.195615;0.805085
-8.231528282;2.229561329;20.134620667;92;96;107;0.195615;0.813559
-10.110943794;-3.189278603;10.013819695;33;42;51;0.276641;0.881356
-8.871974945;-3.599199772;11.127092361;72;74;71;0.618588;0.864407
-9.419616699;5.418775558;20.326269150;154;162;183;1.016444;0.974576
-19.330120087;1.935681581;19.776332855;110;107;98;0.618588;0.889831
-12.119509697;1.046158791;9.408033371;117;133;184;0.195615;0.788136
-17.170427322;-1.596210480;10.847803116;123;120;151;0.479156;0.872881
-12.579864502;2.829518795;15.805288315;134;137;170;0.276641;0.872881
-1.545443535;-8.720829964;18.587223053;118;129;159;0.829923;0.885593
-13.563062668;-7.167022705;16.435226440;69;67;80;0.586844;0.809322
-8.152734756;-8.467720985;15.356388092;68;61;94;0.195615;0.894068
-1.687762976;-5.189166546;13.036991119;141;154;173;0.195615;0.855932
-12.627254486;0.648284197;9.542613029;131;123;147;0.276641;0.847458
-2.890827894;-5.135109901;19.319665909;156;167;197;0.896420;0.961864
-11.764196396;-0.423993587;13.460187912;83;78;75;0.195615;0.762712
-0.677472591;3.570908070;16.954280853;137;136;168;0.195615;0.864407
-11.914023399;-2.148489475;15.454421997;80;91;97;0.338815;0.855932
-8.953761101;6.079458714;17.220945358;108;114;150;0.276641;0.847458
-11.047188759;-5.580148220;13.546762466;173;176;193;0.195615;0.855932
-13.774088860;4.202136993;17.274080276;63;62;68;0.195615;0.894068
-13.305604935;-3.217139006;20.583633423;135;132;161;0.586844;0.894068
-2.126106024;-7.957834244;11.977773666;177;188;210;0.391230;0.911017
-12.978374481;-1.043945313;12.806190491;58;55;64;0.437408;0.838983
-8.560190201;-5.511875153;11.852265358;63;86;60;0.437408;0.902542
-5.012198925;-6.193677902;17.890632629;185;191;217;0.731924;0.894068
-5.266130447;1.457222700;13.461369514;121;102;130;0.195615;0.868644
-7.570127010;-4.530374527;16.832326889;134;141;167;0.852665;0.889831
-11.298511505;-8.018359184;17.206708908;69;59;83;0.276641;0.877119
-11.543169022;3.928952694;14.917222023;93;105;143;0.276641;0.796610
-2.623851299;-8.418306351;13.896215439;139;148;165;0.195615;0.885593
-8.277507782;-7.229159832;14.451924324;66;72;70;0.553282;0.872881
-7.663218498;-6.327950478;12.605373383;39;40;35;0.338815;0.834746
-6.493689060;-1.775825500;10.334962845;222;231;248;0.195615;0.843220
-11.638711929;-2.058501244;11.789175034;92;101;100;0.276641;0.775424
-9.419518471;5.357886791;17.285919189;68;55;46;0.195615;0.800847
-15.025145531;-0.869262218;16.217390060;116;120;165;0.618588;0.906780
-13.454862595;-5.762070179;16.611097336;91;93;92;0.479156;0.919492
-1.879323483;4.842183590;16.428699493;46;45;51;0.195615;0.817797
-11.096863747;-8.902418137;14.121330261;126;132;158;0.195615;0.809322
-1.302442074;-5.529776573;19.371604919;139;147;183;0.705299;0.923729
-5.591426373;-1.734938145;20.607210159;144;138;166;0.874816;0.902542
-5.660879135;2.939847946;16.816755295;75;65;89;0.586844;0.915254
-13.287631035;-5.389547825;21.384355545;165;179;208;0.806540;0.944915
-7.000238419;-2.175054550;10.752401352;16;19;12;0.338815;0.851695
-9.530077934;-7.798198223;11.882199287;53;50;57;0.437408;0.885593
-16.556690216;-0.581952929;14.164856911;80;101;122;0.195615;0.817797
-13.840961456;3.188123703;10.239915848;120;129;158;0.276641;0.826271
-18.820743561;1.801111221;9.342663765;214;218;230;0.195615;0.843220
-18.253839493;1.659019709;20.441951752;163;165;190;0.338815;0.927966
-4.382388115;0.980689943;16.319005966;159;175;211;0.437408;0.881356
-9.607481003;-0.884773612;20.102809906;107;99;97;0.437408;0.894068
-4.950822353;3.762953043;16.056226730;181;185;210;0.338815;0.805085
-1.721119404;-6.129161358;19.252084732;151;167;192;0.553282;0.872881
-8.197598457;1.884008646;20.761768341;137;140;149;0.437408;0.855932
-12.644187927;-1.194646955;13.951954842;15;14;56;0.276641;0.855932
-4.636783600;2.385016918;16.934301376;160;180;204;0.276641;0.872881
-9.929917336;-8.656996727;10.609032631;133;122;156;0.195615;0.915254
-9.552194595;0.036486983;20.760177612;104;102;103;0.648781;0.843220
-0.740169764;2.492477894;16.608987808;154;164;174;0.437408;0.838983
-8.043377876;1.678385615;20.548288345;117;129;177;0.276641;0.762712
-11.225159645;-6.156611919;12.187406540;96;79;111;0.276641;0.830508
-5.379156113;3.844196796;16.037429810;180;188;207;0.391230;0.838983
-3.134565592;-0.462498665;15.109326363;160;160;188;0.276641;0.843220
-8.862539291;-1.453951478;9.076994896;65;77;67;0.391230;0.813559
-9.402610779;6.352493286;18.972169876;94;102;113;0.437408;0.923729
-7.072360039;-5.429295063;11.493905067;54;52;55;0.195615;0.822034
-9.302803040;-6.975454330;19.056627274;169;165;192;0.806540;0.944915
-13.199221611;2.964804649;13.864405632;46;46;46;0.276641;0.783898
-2.183578730;-4.159350395;17.940759659;93;99;125;0.195615;0.822034
-9.376909256;6.374115467;16.642309189;126;126;162;0.276641;0.847458
-12.549343109;-4.718517303;17.267652512;5;9;0;0.479156;0.860169
-14.197816849;-3.573726177;13.578563690;106;126;187;0.195615;0.868644
-8.947111130;0.766868234;20.529869080;145;159;168;0.276641;0.864407
-2.194531441;-1.863306046;16.193586349;155;160;190;0.391230;0.838983
-11.334142685;-6.633714199;12.260812759;222;228;250;0.276641;0.868644
-7.807904720;1.183269024;14.247179031;72;66;66;0.195615;0.750000
-6.118891716;-1.585069060;9.863718033;77;79;118;0.195615;0.830508
-12.850904465;-2.017396927;11.982748032;43;43;51;0.586844;0.847458
-4.624436378;2.662475586;16.937488556;161;178;224;0.437408;0.864407
-3.456763744;3.305309772;11.377560616;204;204;230;0.195615;0.919492
-0.607308269;-7.108670235;19.280010223;181;193;219;0.479156;0.970339
-6.208828926;-6.006446838;12.848282814;137;145;158;0.276641;0.877119
-2.838487387;-5.480717659;18.073465347;167;177;204;0.276641;0.872881
-2.060097933;-5.508601189;15.460349083;114;119;138;0.276641;0.868644
-4.335016251;-5.975790024;15.174675941;129;131;156;0.731924;0.843220
-6.185850143;-2.998561859;11.824336052;241;239;242;0.338815;0.864407
-9.636602402;6.512814522;17.060590744;192;217;255;0.276641;0.894068
-13.627654076;-3.117105722;11.902120590;94;80;129;0.195615;0.817797
-16.335783005;-1.830080032;14.353259087;53;51;62;0.437408;0.864407
-4.987362862;0.860753417;16.371429443;135;151;176;0.195615;0.885593
-18.492164612;-0.522217512;12.253751755;132;132;158;0.276641;0.889831
-4.952798843;-5.289198875;15.484535217;93;86;104;0.195615;0.838983
-7.179014206;2.765869617;15.124069214;139;162;204;0.276641;0.864407
-14.238869667;-2.464122772;12.317739487;70;77;87;0.391230;0.847458
-12.934802055;-9.580777168;15.692344666;158;162;189;0.195615;0.868644
-7.955164433;1.137084961;12.064249039;90;111;132;0.338815;0.885593
-4.083814621;-6.464543343;17.539983749;131;134;169;0.586844;0.860169
-0.420030355;5.302515984;15.943441391;163;170;180;0.437408;0.881356
-6.372313976;-2.602834463;10.987926483;107;112;131;0.391230;0.851695
