//X;Y;Z;Scalar field;C2C absolute distances;Illuminance (PCV)
-28.818500519;16.138900757;5.872799873;208.000000;0.501438;0.877119
-30.170700073;16.465799332;7.395999908;208.000000;0.901111;0.877119
-30.030000687;15.546400070;7.280900002;208.000000;1.019257;0.940678
-29.578800201;15.307999611;7.829500198;208.000000;1.026692;0.906780
-24.823499680;20.775400162;3.802099943;208.000000;0.168946;0.906780
-24.645000458;20.695600510;3.820499897;208.000000;0.318958;0.898305
-27.718099594;20.829399109;6.154099941;208.000000;1.039645;0.923729
-30.802600861;16.576900482;6.785699844;208.000000;0.643662;0.932203
-30.101499557;17.022699356;7.399600029;208.000000;0.744187;0.885593
-30.081699371;16.157300949;7.201900005;208.000000;0.950385;0.911017
-30.320100784;16.610300064;7.102799892;208.000000;0.654103;0.911017
-29.136400223;18.027399063;7.768499851;208.000000;0.998877;0.826271
-29.102300644;15.706199646;7.454699993;208.000000;0.485797;0.936441
-28.796100616;16.482000351;6.606599808;208.000000;0.373340;0.932203
-29.452299118;16.402599335;7.926499844;208.000000;0.676334;0.898305
-26.374799728;14.320199966;7.328499794;208.000000;1.080558;0.936441
-30.135499954;16.549299240;7.571199894;208.000000;0.998011;0.881356
-29.136699677;15.375599861;7.849899769;208.000000;0.866458;0.932203
-29.280899048;15.255499840;7.660699844;208.000000;0.745987;0.927966
-24.993499756;17.727300644;5.709599972;208.000000;0.189775;0.923729
-24.906900406;14.779500008;6.888299942;208.000000;0.632208;0.902542
-28.139099121;14.727800369;7.032599926;208.000000;0.645913;0.902542
-30.099199295;17.042600632;7.259300232;208.000000;0.640692;0.902542
-25.436700821;14.261599541;6.434999943;208.000000;0.772100;0.898305
-29.481599808;17.468200684;7.214799881;208.000000;0.506658;0.889831
-30.024299622;17.128299713;7.407100201;208.000000;0.654842;0.919492
-29.775699615;16.795000076;7.689199924;208.000000;0.566068;0.911017
-29.071300507;15.338399887;7.696599960;208.000000;0.710188;0.927966
-26.349100113;15.916999817;4.864500046;208.000000;0.156861;0.881356
-28.914300919;18.729200363;6.412700176;208.000000;0.385250;0.915254
-29.059299469;15.195400238;7.717000008;208.000000;0.721690;0.915254
-29.894399643;14.971599579;6.017499924;208.000000;0.277995;0.906780
-29.116500854;15.521300316;7.896999836;208.000000;0.896049;0.953390
-29.043300629;16.077699661;6.529399872;208.000000;0.429542;0.898305
-29.997499466;15.734499931;7.439499855;208.000000;1.069196;0.944915
-29.943899155;16.319200516;7.814300060;208.000000;0.980568;0.911017
-29.582899094;17.570499420;7.426599979;208.000000;0.624835;0.868644
-27.338899612;20.128299713;6.011400223;208.000000;0.639422;0.911017
-29.678400040;15.355199814;7.473999977;208.000000;0.817253;0.911017
-29.695499420;17.427900314;7.253699780;208.000000;0.679064;0.872881
-29.431299210;15.054900169;7.338600159;208.000000;0.633141;0.911017
-30.003499985;14.815199852;6.885000229;208.000000;0.932761;0.953390
-28.943300247;16.798999786;6.967000008;208.000000;0.136566;0.923729
-29.907100677;16.685400009;7.250500202;208.000000;0.654510;0.906780
-30.169099808;16.676099777;5.931499958;208.000000;0.537368;0.902542
-30.060400009;16.472400665;7.343500137;208.000000;0.835459;0.864407
-29.948699951;16.903699875;7.164100170;208.000000;0.522682;0.927966
-29.077699661;17.818099976;8.132499695;208.000000;0.933173;0.919492
-30.234500885;16.866500854;6.833700180;208.000000;0.329051;0.889831
-29.184999466;15.673500061;7.874800205;208.000000;0.896198;0.919492
-28.942399979;18.251100540;8.087300301;208.000000;1.120910;0.915254
-29.033899307;15.997300148;6.231800079;208.000000;0.397159;0.940678
-27.169300079;15.063699722;6.575699806;208.000000;0.362820;0.915254
-28.835199356;19.145099640;6.149199963;208.000000;0.434950;0.864407
-30.098100662;16.171499252;8.006299973;208.000000;1.231092;0.932203
-29.986799240;16.828599930;7.878600121;208.000000;0.789046;0.944915
-23.624399185;15.989700317;4.943999767;208.000000;0.628641;0.868644
-30.326400757;16.606300354;7.440899849;208.000000;0.927750;0.885593
-29.142000198;15.817399979;7.648200035;208.000000;0.709812;0.915254
-29.421600342;16.529499054;7.892099857;208.000000;0.543774;0.923729
-29.828599930;16.627500534;7.764999866;208.000000;0.694602;0.894068
-30.406600952;16.686899185;7.872900009;208.000000;0.997543;0.932203
-26.266399384;22.145099640;5.682000160;208.000000;0.633726;0.932203
-28.278900146;18.645099640;7.130499840;208.000000;0.543101;0.906780
-30.414800644;16.698499680;8.070400238;208.000000;1.003657;0.953390
-28.222999573;19.681800842;3.578299999;208.000000;0.235914;0.851695
-30.539100647;16.518899918;7.896500111;208.000000;1.185782;0.944915
-29.556900024;17.204500198;7.614200115;208.000000;0.363367;0.911017
-24.459600449;20.019599915;3.838000059;208.000000;0.555594;0.898305
-29.316999435;17.134899139;8.058500290;208.000000;0.418218;0.902542
-27.426500320;16.447200775;8.750699997;208.000000;0.938630;0.906780
-29.836099625;15.148799896;5.904200077;208.000000;0.275930;0.911017
-30.395700455;16.207000732;7.707499981;208.000000;1.348907;0.919492
-29.211599350;15.293600082;7.818299770;208.000000;0.862434;0.919492
-28.708000183;15.877400398;6.206500053;208.000000;0.129026;0.889831
-30.372699738;16.917800903;6.373600006;208.000000;0.129896;0.894068
-29.169799805;15.538200378;7.056200027;208.000000;0.140813;0.906780
-29.988300323;14.888699532;6.188499928;208.000000;0.412185;0.898305
-28.343200684;16.030099869;6.170400143;208.000000;0.160264;0.881356
-27.919000626;19.323499680;4.334400177;208.000000;0.396029;0.864407
-29.670400620;16.579999924;7.721199989;208.000000;0.593815;0.919492
-29.767400742;16.139999390;8.001000404;208.000000;1.053415;0.940678
-30.324899673;15.269800186;6.567200184;208.000000;0.886456;0.923729
-29.672300339;16.505199432;7.605700016;208.000000;0.649054;0.911017
-27.917800903;18.314399719;6.446300030;208.000000;0.140180;0.906780
-28.950500488;15.540699959;7.328400135;208.000000;0.321968;0.923729
-29.497100830;20.094999313;3.727900028;208.000000;0.401687;0.906780
-30.093000412;16.766500473;6.812900066;208.000000;0.258113;0.911017
-30.526199341;16.647899628;7.910600185;208.000000;1.057363;0.953390
-29.615600586;15.192799568;7.231100082;208.000000;0.700251;0.902542
-29.873899460;16.438299179;7.812200069;208.000000;0.849865;0.911017
-30.448799133;16.665399551;7.776199818;208.000000;1.030797;0.923729
-29.621599197;15.217399597;7.433199883;208.000000;0.792495;0.915254
-29.178699493;16.635900497;7.393400192;208.000000;0.313226;0.885593
-28.758800507;16.620800018;7.172999859;208.000000;0.149244;0.911017
-30.941099167;16.532199860;6.916600227;208.000000;0.815513;0.949153
-28.592599869;15.528599739;7.890999794;208.000000;0.895777;0.906780
-29.218999863;16.506900787;6.677100182;208.000000;0.460244;0.906780
-29.412500381;16.489799500;8.103099823;208.000000;0.686752;0.940678
-29.777299881;16.405500412;8.036999702;208.000000;0.874462;0.889831
-29.048299789;19.926500320;6.504000187;208.000000;0.796500;0.843220
-30.556499481;19.364700317;6.399199963;208.000000;0.500138;0.898305
-29.201999664;19.252700806;6.644299984;208.000000;0.338578;0.872881
-29.583599091;18.840999603;6.696700096;208.000000;0.482834;0.889831
-28.886899948;20.312799454;7.167099953;208.000000;1.294114;0.927966
-29.499700546;20.019500732;7.074200153;208.000000;1.054577;0.894068
-27.389699936;15.215499878;5.762100220;208.000000;0.443551;0.826271
-28.656799316;19.787200928;6.343299866;208.000000;0.681518;0.898305
-29.724500656;19.701700211;7.559500217;208.000000;1.131984;0.949153
-29.507200241;19.985300064;7.420000076;208.000000;1.264241;0.944915
-30.560800552;19.093200684;7.403100014;208.000000;0.871472;0.949153
-28.955799103;18.954099655;7.146100044;208.000000;0.784674;0.911017
-29.325500488;18.008600235;7.890299797;208.000000;0.856069;0.894068
-29.464599609;19.667400360;7.006400108;208.000000;0.764528;0.902542
-29.371900558;20.327499390;7.118500233;208.000000;1.328108;0.919492
-29.005699158;20.438899994;7.223899841;208.000000;1.455855;0.953390
-29.393899918;19.327800751;7.151800156;208.000000;0.776931;0.923729
-29.949699402;19.819499969;7.218100071;208.000000;0.880779;0.919492
-29.009099960;19.349300385;7.613699913;208.000000;1.024293;0.911017
-28.893299103;19.710899353;6.746300220;208.000000;0.795054;0.894068
-29.677400589;20.000999451;7.323800087;208.000000;1.146280;0.936441
-29.898199081;20.035800934;7.422699928;208.000000;1.182751;0.953390
-29.106199265;20.066099167;6.435599804;208.000000;0.852566;0.919492
-30.272699356;18.761499405;7.268099785;208.000000;0.715062;0.894068
-29.499200821;17.841600418;7.894299984;208.000000;0.643731;0.932203
-29.445999146;20.097600937;7.209899902;208.000000;1.202422;0.932203
-29.584199905;20.212099075;7.501800060;208.000000;1.437573;0.953390
-28.806800842;18.673299789;7.471499920;208.000000;0.887348;0.902542
-30.342599869;19.230100632;7.197299957;208.000000;0.644282;0.923729
-29.454500198;19.480100632;7.002699852;208.000000;0.669794;0.872881
-28.524400711;19.825799942;8.204299927;208.000000;1.105980;0.932203
-29.356599808;19.846000671;6.734799862;208.000000;0.720395;0.902542
-30.326499939;19.089199066;6.373499870;208.000000;0.228458;0.860169
-29.269399643;18.627799988;7.966199875;208.000000;1.258138;0.915254
-29.536199570;20.140199661;7.418499947;208.000000;1.353650;0.940678
-29.433000565;20.338300705;7.006299973;208.000000;1.233259;0.944915
-29.887399673;19.890699387;7.326799870;208.000000;1.016344;0.940678
-25.577400208;20.977800369;3.289400101;208.000000;0.258061;0.877119
-30.132299423;19.031799316;7.262199879;208.000000;0.669044;0.923729
-30.497100830;19.672300339;7.315299988;208.000000;0.953873;0.927966
-29.859899521;18.324800491;6.558499813;208.000000;0.246958;0.911017
-29.473400116;19.885599136;6.210000038;208.000000;0.413463;0.902542
-29.506200790;17.781799316;7.672100067;208.000000;0.611967;0.851695
-30.168800354;18.927900314;7.218200207;208.000000;0.629844;0.936441
-29.571399689;19.336599350;6.847700119;208.000000;0.492541;0.877119
-30.350700378;19.808900833;5.973700047;208.000000;0.552426;0.889831
-28.692499161;18.474399567;7.902299881;208.000000;0.848293;0.906780
-30.458099365;19.658800125;6.229400158;208.000000;0.627839;0.877119
-28.619499207;20.086000443;6.873400211;208.000000;0.967491;0.872881
-30.410800934;19.256700516;7.414100170;208.000000;0.867824;0.919492
-30.072500229;19.688699722;7.199600220;208.000000;0.770501;0.919492
-28.736099243;18.787200928;7.947999954;208.000000;0.938144;0.906780
-30.381700516;19.334699631;6.722400188;208.000000;0.354392;0.885593
-30.142299652;18.750499725;7.249700069;208.000000;0.663904;0.906780
-29.808500290;18.272800446;7.868500233;208.000000;0.654407;0.927966
-29.787700653;18.934000015;7.668300152;208.000000;1.014108;0.915254
-29.026300430;19.093500137;6.801700115;208.000000;0.581027;0.932203
-30.106199265;19.303400040;7.019400120;208.000000;0.428157;0.894068
-30.168199539;18.619800568;7.484499931;208.000000;0.794911;0.911017
-30.212699890;18.659900665;6.849400043;208.000000;0.417905;0.889831
-29.242099762;18.487899780;7.883100033;208.000000;1.166074;0.872881
-28.715000153;19.996000290;6.394000053;208.000000;0.894190;0.885593
-29.698699951;15.920499802;8.232399940;208.000000;1.293728;0.923729
-29.467399597;20.026800156;7.284100056;208.000000;1.206430;0.927966
-30.157499313;19.408899307;6.111400127;208.000000;0.355348;0.855932
-28.053300858;19.515100479;6.497099876;208.000000;0.592515;0.889831
-30.020000458;18.784500122;7.384200096;208.000000;0.729136;0.906780
-29.143499374;20.483400345;7.352600098;208.000000;1.618287;0.966102
-29.978500366;19.238899231;6.112199783;208.000000;0.224974;0.872881
-29.352600098;17.779699326;8.091699600;208.000000;0.834898;0.898305
-30.113599777;18.862100601;7.301700115;208.000000;0.727166;0.906780
-30.017900467;18.979600906;6.789700031;208.000000;0.257899;0.885593
-29.310699463;19.572000504;6.887100220;208.000000;0.627559;0.881356
-30.129899979;19.013799667;7.439799786;208.000000;0.845661;0.923729
-28.517900467;19.291900635;7.613699913;208.000000;0.553443;0.936441
-30.360000610;18.801099777;6.859600067;208.000000;0.357619;0.898305
-29.337999344;18.926000595;7.294099808;208.000000;0.861038;0.919492
-28.683000565;19.896499634;6.929900169;208.000000;1.010648;0.898305
-30.241399765;19.253000259;6.157499790;208.000000;0.369988;0.877119
-29.033899307;19.411800385;6.817100048;208.000000;0.606725;0.860169
-30.368200302;19.744499207;7.336500168;208.000000;0.959905;0.940678
-29.722000122;19.816299438;7.051599979;208.000000;0.837691;0.932203
-29.008899689;19.334899902;6.407100201;208.000000;0.387163;0.868644
-30.053199768;19.527900696;6.752699852;208.000000;0.361407;0.881356
-29.791099548;19.445299149;6.351799965;208.000000;0.301342;0.877119
-29.060899734;20.105800629;6.173699856;208.000000;0.828859;0.915254
-28.840700150;20.225099564;7.120100021;208.000000;1.219249;0.902542
-28.692800522;19.802400589;8.206700325;208.000000;1.203129;0.927966
-30.531400681;19.309000015;7.379499912;208.000000;0.884613;0.932203
-28.791400909;19.850900650;6.762400150;208.000000;0.955403;0.915254
-29.801900864;18.590700150;7.573900223;208.000000;0.780705;0.889831
-29.656400681;17.827199936;8.081800461;208.000000;0.574129;0.872881
-30.136899948;18.647100449;7.652200222;208.000000;0.932289;0.898305
-28.981300354;19.866100311;6.384900093;208.000000;0.762566;0.915254
-29.536399841;18.581499100;7.823400021;208.000000;1.038100;0.944915
-28.930000305;20.161899567;6.598999977;208.000000;1.073637;0.923729
-28.579799652;20.029399872;7.089900017;208.000000;0.921912;0.936441
-29.419000626;18.993400574;7.198599815;208.000000;0.820144;0.889831
-30.539300919;19.672199249;7.025100231;208.000000;0.786347;0.902542
-29.235799789;19.525299072;7.593299866;208.000000;1.264669;0.940678
-29.446199417;17.777399063;8.025799751;208.000000;0.723096;0.877119
-29.607200623;19.924900055;7.347300053;208.000000;1.136431;0.970339
-30.224700928;19.011100769;7.636300087;208.000000;1.037974;0.932203
-29.040700912;20.487699509;7.323800087;208.000000;1.524451;0.940678
-30.445499420;19.010700226;7.189799786;208.000000;0.627894;0.927966
-29.359800339;19.127000809;7.711500168;208.000000;1.245840;0.923729
-29.703899384;19.841999054;7.452099800;208.000000;1.124318;0.940678
-28.858699799;20.045400620;6.359399796;208.000000;0.958542;0.877119
-29.342300415;19.134500504;8.018099785;208.000000;1.441787;0.940678
-28.956199646;20.443799973;7.067800045;208.000000;1.394639;0.919492
-29.640300751;20.142299652;7.362400055;208.000000;1.283898;0.927966
-30.398399353;19.150999069;7.518199921;208.000000;0.943602;0.944915
-30.008300781;19.912099838;7.207699776;208.000000;0.936237;0.927966
-29.929899216;19.137399673;6.110700130;208.000000;0.145856;0.894068
-29.976900101;20.388799667;3.694700003;208.000000;0.299457;0.894068
-28.935100555;20.338300705;6.980999947;208.000000;1.333735;0.911017
-29.408100128;19.440500259;7.084000111;208.000000;0.734061;0.864407
-29.712099075;19.885000229;6.932799816;208.000000;0.840732;0.915254
-28.797100067;18.705200195;7.972099781;208.000000;1.027148;0.923729
-28.818799973;19.631200790;6.401299953;208.000000;0.695089;0.915254
-28.840599060;19.793399811;6.258100033;208.000000;0.712575;0.906780
-30.421800613;19.278600693;6.895699978;208.000000;0.437089;0.881356
-29.221599579;20.473600388;7.119699955;208.000000;1.461721;0.953390
-29.611400604;17.978700638;7.988900185;208.000000;0.622910;0.944915
-28.958299637;20.238000870;7.185100079;208.000000;1.343125;0.923729
-28.933200836;20.106000900;7.239500046;208.000000;1.300790;0.936441
-29.294399261;19.434799194;6.699600220;208.000000;0.410326;0.881356
-29.863000870;19.781400681;7.461299896;208.000000;1.055730;0.919492
-29.081199646;20.409099579;7.134500027;208.000000;1.450611;0.940678
-29.350400925;20.121599197;7.191599846;208.000000;1.211743;0.927966
-29.502399445;19.813699722;6.834799767;208.000000;0.744344;0.902542
-30.099199295;19.517099380;6.158400059;208.000000;0.383962;0.868644
-29.234699249;19.377599716;6.786600113;208.000000;0.477742;0.898305
-28.078699112;21.149799347;3.570100069;208.000000;0.289385;0.877119
-30.069099426;18.430500031;7.500299931;208.000000;0.729298;0.868644
-28.650999069;20.109399796;7.004399776;208.000000;0.999443;0.898305
-29.509599686;15.748399734;9.020600319;208.000000;1.583044;0.957627
-30.015800476;18.421699524;6.845900059;208.000000;0.221518;0.906780
-29.526100159;20.022499084;6.795800209;208.000000;0.868168;0.885593
-30.125099182;18.964899063;7.912700176;208.000000;1.232884;0.932203
-29.202299118;18.544700623;6.487699986;208.000000;0.483909;0.919492
-28.951799393;19.034999847;8.160499573;208.000000;1.185073;0.885593
-29.223199844;18.709600449;8.061599731;208.000000;1.380102;0.927966
-29.372299194;18.120500565;7.774000168;208.000000;0.851688;0.868644
-28.890499115;20.430599213;7.143000126;208.000000;1.336622;0.940678
-30.574399948;19.408700943;7.270899773;208.000000;0.848475;0.906780
-28.762800217;19.811399460;6.321100235;208.000000;0.732750;0.881356
-29.369899750;20.008199692;7.241099834;208.000000;1.164677;0.949153
-30.116699219;18.625900269;6.938899994;208.000000;0.421173;0.898305
-29.071399689;20.634899139;7.323900223;208.000000;1.613404;0.966102
-29.585199356;18.875200272;6.909500122;208.000000;0.554558;0.868644
-28.926700592;19.386100769;7.361100197;208.000000;0.935396;0.889831
-29.029300690;18.741600037;7.514699936;208.000000;1.065691;0.911017
-29.507400513;19.006399155;7.245699883;208.000000;0.816505;0.911017
-29.518899918;20.132699966;6.322000027;208.000000;0.631392;0.885593
-29.635499954;20.048200607;6.751500130;208.000000;0.825270;0.902542
-29.698099136;19.904300690;7.178599834;208.000000;0.982247;0.915254
-29.562099457;18.958499908;6.853899956;208.000000;0.536358;0.889831
-28.560199738;19.033100128;7.839300156;208.000000;0.680439;0.894068
-29.682300568;19.813999176;6.861800194;208.000000;0.771355;0.911017
-29.558900833;19.460300446;6.435800076;208.000000;0.265532;0.902542
-29.972799301;18.933900833;6.867599964;208.000000;0.353788;0.877119
-29.668199539;18.586700439;7.818399906;208.000000;0.992942;0.949153
-29.806100845;18.941900253;7.819200039;208.000000;1.146564;0.944915
-29.225500107;19.773799896;6.994299889;208.000000;0.851729;0.860169
-29.485399246;19.421899796;7.525899887;208.000000;1.108594;0.940678
-29.545400620;19.617799759;6.746600151;208.000000;0.543973;0.872881
-29.568099976;20.388000488;7.197500229;208.000000;1.389308;0.940678
-29.408599854;19.190299988;6.782700062;208.000000;0.400428;0.855932
-29.292900085;19.523099899;7.043000221;208.000000;0.740704;0.881356
-29.205600739;19.826700211;7.150599957;208.000000;1.005484;0.894068
-29.270399094;20.550899506;7.224199772;208.000000;1.568996;0.961864
-30.023799896;19.653400421;6.855400085;208.000000;0.521623;0.868644
-29.888500214;18.571500778;7.260099888;208.000000;0.487134;0.889831
-29.061199188;20.352199554;7.048699856;208.000000;1.364066;0.923729
-30.393899918;19.121299744;6.085700035;208.000000;0.397798;0.877119
-28.353099823;15.794699669;8.481800079;208.000000;1.116285;0.894068
-30.252399445;19.386699677;6.344099998;208.000000;0.362187;0.902542
-28.592699051;19.273000717;7.709099770;208.000000;0.652884;0.911017
-28.818799973;18.700099945;7.836800098;208.000000;0.979912;0.898305
-29.441600800;19.597700119;7.224599838;208.000000;0.920133;0.923729
-30.390399933;19.007900238;7.506400108;208.000000;0.921314;0.940678
-29.787000656;20.015100479;7.494299889;208.000000;1.239693;0.966102
-29.362400055;19.373399734;6.564000130;208.000000;0.249944;0.915254
-28.831600189;19.964199066;6.748600006;208.000000;1.005849;0.911017
-29.475500107;19.401500702;6.388500214;208.000000;0.179594;0.902542
-29.263700485;20.199199677;6.149600029;208.000000;0.768349;0.902542
-29.208000183;20.266599655;6.250899792;208.000000;0.870749;0.902542
-29.946699142;18.537900925;6.607200146;208.000000;0.310083;0.915254
-29.946599960;19.285100937;7.287399769;208.000000;0.693849;0.915254
-29.508600235;20.011199951;7.179599762;208.000000;1.120973;0.927966
-29.721200943;18.827800751;6.791900158;208.000000;0.450735;0.877119
-29.649200439;19.755300522;6.616199970;208.000000;0.576416;0.860169
-29.513900757;20.414300919;6.940299988;208.000000;1.216012;0.923729
-29.449300766;19.814500809;6.098700047;208.000000;0.351065;0.885593
-29.461900711;19.937999725;7.233399868;208.000000;1.109898;0.881356
-28.838399887;20.392599106;7.251599789;208.000000;1.291015;0.944915
-29.594699860;19.207700729;6.575799942;208.000000;0.240939;0.872881
-28.839000702;18.437599182;7.710599899;208.000000;0.932920;0.915254
-26.802600861;21.580299377;5.960599899;208.000000;0.431907;0.927966
-29.802499771;19.130899429;6.363900185;208.000000;0.146462;0.868644
-28.758800507;19.066600800;7.386099815;208.000000;0.728031;0.877119
-29.405599594;18.772399902;7.369999886;208.000000;0.775471;0.919492
-28.705900192;19.762899399;6.232100010;208.000000;0.623565;0.889831
-29.950300217;18.310800552;7.964700222;208.000000;0.648523;0.949153
-29.429100037;19.779699326;6.922399998;208.000000;0.774234;0.915254
-29.362600327;19.414899826;6.890399933;208.000000;0.548345;0.868644
-29.288400650;19.468000412;8.003499985;208.000000;1.431793;0.949153
-29.702699661;19.096300125;6.321300030;208.000000;0.137572;0.906780
-29.451000214;19.244499207;7.221099854;208.000000;0.837456;0.915254
-29.178300858;19.040700912;8.090700150;208.000000;1.331283;0.911017
-28.758100510;20.309900284;7.206099987;208.000000;1.179191;0.957627
-30.364099503;19.408300400;6.062099934;208.000000;0.347068;0.881356
-28.722999573;19.047800064;7.565999985;208.000000;0.709043;0.919492
-28.629400253;20.966199875;5.334400177;208.000000;1.258647;0.915254
-29.598699570;17.839700699;7.835199833;208.000000;0.537258;0.902542
-30.733699799;19.288700104;6.942900181;208.000000;0.663845;0.944915
-27.742500305;19.764299393;3.172199965;208.000000;0.184322;0.919492
-30.357299805;19.412799835;6.339099884;208.000000;0.437552;0.889831
-29.788400650;20.124200821;7.393799782;208.000000;1.248238;0.966102
-29.824800491;20.326099396;3.667200089;208.000000;0.213940;0.919492
-29.653600693;19.740900040;7.213399887;208.000000;0.914513;0.915254
-29.654499054;19.540199280;6.564700127;208.000000;0.417921;0.864407
-28.930200577;19.233999252;7.343500137;208.000000;0.909263;0.906780
-29.460899353;17.716999054;7.880400181;208.000000;0.660548;0.898305
-29.327100754;19.854000092;6.193399906;208.000000;0.476287;0.902542
-30.211700439;18.938100815;7.488399982;208.000000;0.893920;0.927966
-29.409099579;21.188100815;4.598199844;208.000000;1.511366;0.906780
-30.272199631;19.166500092;7.553899765;208.000000;0.964680;0.961864
-29.428199768;19.359199524;6.956500053;208.000000;0.588791;0.923729
-29.628400803;17.907600403;8.161499977;208.000000;0.658851;0.911017
-29.206699371;18.545799255;7.998199940;208.000000;1.267263;0.898305
-28.931200027;20.019199371;6.587800026;208.000000;0.947490;0.877119
-29.243900299;19.918800354;6.188399792;208.000000;0.575065;0.898305
-29.934200287;18.405500412;6.734300137;208.000000;0.164395;0.898305
-29.756900787;19.351400375;7.616300106;208.000000;1.064296;0.953390
-28.693500519;19.630100250;8.156200409;208.000000;1.105109;0.940678
-27.583000183;16.293899536;8.751000404;208.000000;0.941668;0.906780
-29.771799088;18.817199707;6.608099937;208.000000;0.333377;0.877119
-29.093799591;18.879600525;7.572199821;208.000000;1.096515;0.881356
-29.579099655;20.045099258;6.237699986;208.000000;0.504533;0.936441
-28.623199463;19.851999283;6.078899860;208.000000;0.596432;0.851695
-29.884799957;19.919099808;7.458300114;208.000000;1.131755;0.944915
-29.312000275;19.427400589;7.019100189;208.000000;0.681137;0.911017
-28.916900635;19.141500473;6.737999916;208.000000;0.606114;0.889831
-29.712499619;18.208299637;8.163000107;208.000000;0.750163;0.949153
-27.934700012;19.761299133;6.376399994;208.000000;0.588701;0.864407
-29.281400681;18.469800949;8.005999565;208.000000;1.163972;0.936441
-29.700500488;19.618099213;6.382900238;208.000000;0.316541;0.902542
-30.462999344;19.379899979;6.450699806;208.000000;0.440364;0.889831
-28.964899063;19.196800232;6.614299774;208.000000;0.490338;0.843220
-29.594699860;19.724199295;7.035699844;208.000000;0.828630;0.894068
-30.014900208;19.490600586;6.327899933;208.000000;0.393068;0.927966
-29.327699661;20.515699387;7.080200195;208.000000;1.426228;0.936441
-29.356000900;19.454599380;7.907100201;208.000000;1.452955;0.915254
-29.725799561;19.628900528;6.683800220;208.000000;0.556689;0.868644
-30.328599930;19.231199265;7.480299950;208.000000;0.909606;0.944915
-29.285699844;19.514699936;7.155099869;208.000000;0.840436;0.927966
-29.026500702;20.092699051;6.538099766;208.000000;0.960822;0.898305
-30.215099335;19.039899826;6.189400196;208.000000;0.276590;0.877119
-29.431699753;17.882600784;8.115099907;208.000000;0.793534;0.932203
-29.295200348;19.071300507;8.098400116;208.000000;1.435691;0.944915
-28.382600784;19.901800156;6.233799934;208.000000;0.673995;0.872881
-30.161100388;19.670600891;6.866700172;208.000000;0.546837;0.877119
-30.020200729;18.986400604;7.653299809;208.000000;1.054918;0.919492
-29.926900864;19.457799911;6.428100109;208.000000;0.344952;0.898305
-29.779399872;18.173599243;8.092800140;208.000000;0.655873;0.915254
-29.159799576;20.317699432;6.384200096;208.000000;0.973944;0.936441
-29.922899246;19.803800583;7.104300022;208.000000;0.798299;0.911017
-28.898300171;19.071800232;6.982200146;208.000000;0.676147;0.906780
-28.831600189;19.687500000;6.270999908;208.000000;0.650259;0.860169
-29.711299896;19.662200928;6.964300156;208.000000;0.687040;0.915254
-29.920600891;18.759099960;7.389100075;208.000000;0.695107;0.915254
-29.160999298;18.670600891;8.163599968;208.000000;1.415635;0.927966
-28.034799576;19.852699280;8.520299911;208.000000;1.179161;0.940678
-29.755500793;19.847600937;6.707099915;208.000000;0.687146;0.919492
-29.724800110;18.469100952;7.813099861;208.000000;0.862524;0.898305
-30.198099136;18.965499878;7.357900143;208.000000;0.762226;0.911017
-30.104200363;18.719200134;6.834199905;208.000000;0.378975;0.868644
-29.178600311;19.292200089;6.144100189;208.000000;0.219704;0.898305
-29.559900284;19.984100342;6.955100060;208.000000;0.957301;0.911017
-28.750299454;21.508800507;3.419500113;208.000000;0.957603;0.885593
-29.305599213;15.722100258;4.904500008;208.000000;0.187050;0.889831
-30.064599991;19.368499756;6.103300095;208.000000;0.357316;0.923729
-29.951900482;18.394899368;6.463699818;208.000000;0.254255;0.877119
-29.179899216;18.968900681;7.538599968;208.000000;1.108022;0.915254
-29.593599319;20.003099442;7.510499954;208.000000;1.301010;0.919492
-29.122999191;19.220300674;6.026999950;208.000000;0.215224;0.889831
-30.302600861;19.623100281;6.513500214;208.000000;0.489991;0.894068
-29.614000320;19.190599442;6.743599892;208.000000;0.396756;0.877119
-28.059499741;15.890600204;8.296299934;208.000000;1.035586;0.936441
-30.656299591;19.261499405;6.727399826;208.000000;0.503425;0.894068
-29.715900421;17.876899719;8.001399994;208.000000;0.499705;0.902542
-29.951000214;19.212299347;6.418600082;208.000000;0.150643;0.881356
-29.284900665;18.838800430;7.651999950;208.000000;1.067195;0.902542
-27.844400406;19.989299774;3.868599892;208.000000;0.390357;0.877119
-30.074600220;18.955900192;7.194099903;208.000000;0.618101;0.932203
-28.875999451;20.223199844;6.789000034;208.000000;1.204302;0.894068
-28.614900589;18.892499924;7.355299950;208.000000;0.622498;0.894068
-29.456699371;20.210399628;6.624300003;208.000000;0.873548;0.911017
-29.084400177;19.869499207;6.597300053;208.000000;0.754425;0.894068
-28.893400192;18.666000366;7.640100002;208.000000;0.991841;0.902542
-29.910100937;19.308799744;6.621699810;208.000000;0.194401;0.855932
-29.483800888;17.753299713;8.119500160;208.000000;0.729637;0.911017
-29.074399948;19.238800049;6.363299847;208.000000;0.296416;0.877119
-28.783700943;20.349599838;7.097599983;208.000000;1.202888;0.936441
-29.222299576;20.453399658;7.274000168;208.000000;1.534925;0.957627
-23.731500626;17.464000702;4.056000233;208.000000;0.222923;0.894068
-23.886299133;17.377399445;5.731900215;208.000000;0.432909;0.949153
-29.870100021;18.849300385;7.579299927;208.000000;0.895894;0.889831
-28.783399582;19.963699341;6.859700203;208.000000;1.079348;0.919492
-24.406099319;14.702699661;7.113900185;208.000000;0.563853;0.923729
-29.930599213;18.998899460;7.978000164;208.000000;1.303449;0.961864
-28.463499069;21.071599960;1.673699975;208.000000;0.344790;0.919492
-29.370899200;20.078899384;6.466800213;208.000000;0.722931;0.889831
-30.368000031;19.698099136;6.575300217;208.000000;0.579846;0.902542
-30.045600891;20.071100235;7.381299973;208.000000;1.168349;0.961864
-29.442100525;19.684600830;7.140200138;208.000000;0.885656;0.915254
-29.494400024;19.032400131;8.025699615;208.000000;1.404811;0.927966
-28.950500488;19.328599930;6.804800034;208.000000;0.630566;0.885593
-29.260799408;18.915000916;7.726399899;208.000000;1.172046;0.911017
-30.416900635;19.711999893;7.097799778;208.000000;0.790641;0.927966
-29.645200729;20.202699661;3.603699923;208.000000;0.226278;0.809322
-28.577999115;19.839700699;8.112600327;208.000000;1.093058;0.932203
-27.338699341;21.885400772;2.950400114;208.000000;0.572080;0.936441
-29.435499191;17.480100632;8.107999802;208.000000;0.670539;0.919492
-30.134199142;19.639699936;6.757299900;208.000000;0.470355;0.894068
-29.585199356;18.000799179;8.160099983;208.000000;0.723891;0.898305
-29.251199722;20.361900330;6.279300213;208.000000;0.929093;0.927966
-29.065099716;19.262199402;6.596099854;208.000000;0.399456;0.885593
-28.741199493;18.663700104;8.186900139;208.000000;1.081310;0.923729
-29.028600693;19.102199554;6.669799805;208.000000;0.484764;0.881356
-27.562299728;21.719600677;4.761199951;208.000000;0.775895;0.911017
-30.051000595;19.657699585;6.956699848;208.000000;0.579013;0.927966
-29.110200882;20.467899323;6.696100235;208.000000;1.241591;0.919492
-30.000799179;19.446199417;6.504799843;208.000000;0.275531;0.877119
-29.150600433;19.540700912;7.095499992;208.000000;0.834494;0.923729
-28.484300613;19.829099655;3.040199995;208.000000;0.333137;0.855932
-24.502700806;17.944499969;5.155600071;208.000000;0.552288;0.932203
-30.322900772;19.841800690;6.303699970;208.000000;0.683226;0.927966
-30.419599533;19.755699158;6.982399940;208.000000;0.756898;0.923729
-25.405899048;15.073900223;5.962699890;208.000000;0.211389;0.843220
-29.038600922;19.721099854;6.194099903;208.000000;0.623603;0.855932
-30.337499619;18.946699142;6.964900017;208.000000;0.387357;0.902542
-29.035900116;20.148199081;6.265600204;208.000000;0.894116;0.894068
-29.228700638;19.473600388;6.882199764;208.000000;0.599693;0.877119
-28.912900925;19.301500320;8.213500023;208.000000;1.203687;0.906780
-29.266199112;19.745599747;7.122700214;208.000000;0.922955;0.902542
-30.181800842;16.022300720;8.627799988;208.000000;1.656534;0.978814
-28.836799622;20.260599136;6.948500156;208.000000;1.216319;0.919492
-29.364599228;19.542999268;8.005700111;208.000000;1.519016;0.944915
-29.096799850;19.245100021;7.335299969;208.000000;1.013963;0.898305
-28.756799698;18.443700790;7.771200180;208.000000;0.864363;0.919492
-29.210699081;19.740900040;8.255700111;208.000000;1.576180;0.944915
-29.388299942;19.622600555;6.820099831;208.000000;0.594227;0.860169
-29.965299606;18.373699188;8.090999603;208.000000;0.731501;0.936441
-26.561199188;15.953200340;7.942800045;208.000000;0.936214;0.919492
-29.367799759;19.373600006;7.663700104;208.000000;1.275849;0.911017
-30.323400497;19.185199738;7.637899876;208.000000;1.056512;0.944915
-28.631799698;19.334600449;7.851399899;208.000000;0.773614;0.898305
-29.513299942;20.322999954;2.955499887;208.000000;0.194338;0.902542
-30.493400574;19.362199783;7.526500225;208.000000;1.022950;0.961864
-29.480800629;15.959199905;8.843799591;208.000000;1.352384;0.936441
-29.743700027;19.747800827;6.078199863;208.000000;0.154027;0.919492
-29.516500473;19.275100708;6.246200085;208.000000;0.128279;0.872881
-28.805500031;19.127700806;8.020000458;208.000000;0.981154;0.894068
-28.133699417;19.961500168;8.392299652;208.000000;1.155448;0.936441
-28.864500046;20.431999207;6.927700043;208.000000;1.302391;0.927966
-28.878099442;20.248100281;7.317900181;208.000000;1.295411;0.936441
-28.635400772;18.729299545;8.106800079;208.000000;0.988656;0.927966
-29.801000595;19.784099579;7.347599983;208.000000;0.982632;0.944915
-29.248500824;19.418600082;7.113399982;208.000000;0.781459;0.872881
-29.131700516;17.957300186;7.936800003;208.000000;0.969652;0.881356
-29.458900452;18.901199341;7.441500187;208.000000;0.882183;0.855932
-23.373199463;15.352700233;6.576300144;208.000000;0.882253;0.936441
-29.711900711;20.094800949;7.198200226;208.000000;1.132857;0.944915
-30.051500320;18.729600906;7.063099861;208.000000;0.497814;0.915254
-28.737199783;16.908199310;8.886899948;208.000000;0.427194;0.949153
-28.986600876;20.068300247;7.137599945;208.000000;1.217360;0.906780
-30.716699600;19.321300507;7.335599899;208.000000;0.931384;0.966102
-29.956300735;19.960599899;7.387100220;208.000000;1.097790;0.978814
-29.582799911;17.852500916;8.003600121;208.000000;0.606421;0.927966
-25.482700348;15.437299728;6.013500214;208.000000;0.292842;0.860169
-30.072900772;18.516000748;7.632100105;208.000000;0.820463;0.881356
-28.646600723;18.571800232;7.835100174;208.000000;0.818268;0.911017
-28.578500748;19.869499207;6.357900143;208.000000;0.726470;0.851695
-29.840900421;18.630699158;7.420800209;208.000000;0.651324;0.906780
-29.042499542;20.518999100;7.135700226;208.000000;1.509611;0.949153
-30.560300827;19.415000916;6.609600067;208.000000;0.509650;0.911017
-29.111499786;18.985799789;8.021800041;208.000000;1.243284;0.915254
-28.315500259;19.374200821;8.067000389;208.000000;0.714223;0.957627
-29.793800354;19.721700668;6.696100235;208.000000;0.598967;0.881356
-30.257400513;19.876899719;6.143599987;208.000000;0.602085;0.872881
-29.510200500;17.803600311;6.032000065;208.000000;0.193239;0.877119
-30.064800262;18.839000702;7.644199848;208.000000;0.979713;0.885593
-30.401199341;19.216699600;6.315899849;208.000000;0.361549;0.902542
-29.730699539;19.879600525;7.644999981;208.000000;1.287895;0.961864
-29.528499603;20.205499649;7.330399990;208.000000;1.353787;0.953390
-28.626600266;20.170000076;7.225299835;208.000000;1.017741;0.983051
-29.311199188;19.296100616;7.242899895;208.000000;0.873124;0.894068
-30.503200531;19.175899506;7.419000149;208.000000;0.877640;0.919492
-30.147100449;19.643600464;6.336200237;208.000000;0.497172;0.911017
-29.793500900;19.931800842;7.253099918;208.000000;1.016721;0.919492
-28.683000565;18.721300125;7.487500191;208.000000;0.757668;0.919492
-29.455600739;18.313499451;7.728899956;208.000000;0.901432;0.923729
-29.467199326;18.649299622;6.569900036;208.000000;0.399971;0.885593
-28.733699799;20.071699142;6.262300014;208.000000;0.892436;0.894068
-30.318000793;19.822999954;6.071700096;208.000000;0.602602;0.911017
-28.760799408;20.053499222;6.966599941;208.000000;1.097569;0.940678
-29.412300110;19.444400787;7.744100094;208.000000;1.332911;0.949153
-29.115600586;18.491800308;8.158699989;208.000000;1.330426;0.902542
-30.493799210;19.605300903;6.471099854;208.000000;0.596471;0.911017
-28.893299103;20.381299973;6.749100208;208.000000;1.320219;0.885593
-28.496000290;19.996799469;6.374599934;208.000000;0.825626;0.881356
-28.611000061;17.892499924;8.953100204;208.000000;0.950184;0.953390
-29.262699127;19.390899658;6.610799789;208.000000;0.326436;0.898305
-30.509000778;19.642599106;6.595300198;208.000000;0.620029;0.889831
-29.920499802;18.829599380;6.183100224;208.000000;0.190485;0.911017
-29.880599976;18.843999863;7.761899948;208.000000;1.052667;0.944915
-28.938400269;19.350500107;6.926400185;208.000000;0.732150;0.906780
-29.889200211;18.227199554;6.661300182;208.000000;0.181005;0.911017
-30.054100037;18.817699432;6.941599846;208.000000;0.420599;0.855932
-29.724700928;19.703199387;7.110799789;208.000000;0.792960;0.932203
-29.375000000;19.136299133;6.499300003;208.000000;0.145666;0.868644
-27.535999298;21.229299545;6.182899952;208.000000;0.887855;0.966102
-29.240499496;19.976600647;6.343299866;208.000000;0.671352;0.894068
-29.239400864;20.706100464;7.284200191;208.000000;1.718850;0.953390
-30.545900345;19.072700500;7.226500034;208.000000;0.703060;0.915254
-28.864400864;20.005599976;6.461599827;208.000000;0.948845;0.894068
-30.016300201;19.585899353;7.158299923;208.000000;0.677163;0.911017
-29.153699875;19.714000702;6.195199966;208.000000;0.536567;0.855932
-29.298400879;19.440000534;6.020500183;208.000000;0.281085;0.919492
-30.019599915;19.227800369;7.002600193;208.000000;0.396249;0.855932
-28.980699539;20.279399872;6.407700062;208.000000;1.064469;0.898305
-30.213499069;19.055000305;6.406499863;208.000000;0.148779;0.902542
-29.522899628;19.639799118;6.898700237;208.000000;0.665885;0.932203
-29.564599991;20.213499069;6.869599819;208.000000;1.025735;0.911017
-28.949800491;18.747100830;7.670400143;208.000000;1.017462;0.894068
-27.739200592;21.312099457;3.985399961;208.000000;0.448151;0.889831
-29.997499466;19.242399216;7.118299961;208.000000;0.514656;0.898305
-29.517099380;18.837999344;6.825399876;208.000000;0.546149;0.898305
-28.945100784;19.594100952;7.413400173;208.000000;1.028567;0.944915
-29.049100876;19.758800507;6.387599945;208.000000;0.636249;0.864407
-29.224500656;19.132900238;6.610300064;208.000000;0.306146;0.872881
-28.567600250;19.715099335;7.976500034;208.000000;0.951822;0.940678
-29.450500488;20.713399887;3.146600008;208.000000;0.515804;0.894068
-29.668199539;19.053899765;7.953599930;208.000000;1.325885;0.927966
-29.510499954;18.546699524;7.962100029;208.000000;1.057768;0.936441
-30.328199387;19.711500168;6.773700237;208.000000;0.596758;0.906780
-28.776599884;16.096700668;4.177599907;208.000000;0.260292;0.877119
-29.474000931;20.328399658;3.473200083;208.000000;0.333845;0.911017
-30.266300201;18.645200729;7.445600033;208.000000;0.822778;0.889831
-28.667499542;19.645500183;7.827300072;208.000000;0.920888;0.915254
-29.134700775;18.575199127;8.210599899;208.000000;1.386943;0.911017
-28.822700500;20.095199585;6.760600090;208.000000;1.115101;0.864407
-28.516500473;19.726900101;8.090200424;208.000000;0.982686;0.872881
-28.464099884;20.006299973;4.394000053;208.000000;0.572096;0.902542
-29.781999588;19.174400330;6.906499863;208.000000;0.406558;0.881356
-28.976600647;19.468700409;8.209199905;208.000000;1.283926;0.932203
-28.819700241;18.610099792;7.886000156;208.000000;0.999743;0.894068
-30.048000336;20.473400116;2.741699934;208.000000;0.218833;0.864407
-29.509199142;17.665700912;7.958399773;208.000000;0.635104;0.889831
-29.486499786;19.678600311;7.290500164;208.000000;1.014941;0.906780
-30.069099426;19.197900772;6.816999912;208.000000;0.206124;0.881356
-29.429500580;20.167100906;6.504300117;208.000000;0.779965;0.898305
-29.945600510;19.571899414;6.790900230;208.000000;0.435510;0.868644
-28.852600098;19.822099686;6.045499802;208.000000;0.642217;0.851695
-29.485000610;19.858999252;7.034800053;208.000000;0.910154;0.919492
-29.107400894;20.158899307;6.958399773;208.000000;1.147297;0.906780
-29.638599396;20.261899948;7.003900051;208.000000;1.152565;0.915254
-29.607599258;19.815200806;6.435100079;208.000000;0.445103;0.923729
-29.033700943;19.487100601;7.211999893;208.000000;0.958288;0.927966
-29.170700073;19.008399963;7.793099880;208.000000;1.203043;0.877119
-28.466699600;19.113800049;8.026800156;208.000000;0.749355;0.953390
-28.530700684;19.676300049;6.231299877;208.000000;0.492886;0.872881
-28.978900909;19.230199814;6.311600208;208.000000;0.389245;0.894068
-29.653200150;20.090599060;7.551000118;208.000000;1.364983;0.970339
-30.187400818;18.729099274;6.529799938;208.000000;0.238565;0.911017
-28.830200195;18.842800140;7.567999840;208.000000;0.853871;0.885593
-24.530000687;16.986900330;4.926000118;208.000000;0.390727;0.898305
-29.558599472;19.016899109;8.114700317;208.000000;1.462340;0.927966
-30.331499100;18.668899536;7.894800186;208.000000;0.930577;0.927966
-29.312599182;20.428499222;6.984899998;208.000000;1.307588;0.932203
-28.056299210;16.418899536;8.976400375;208.000000;0.589571;0.936441
-23.945199966;15.789099693;5.035099983;208.000000;0.536327;0.889831
-29.607999802;19.509599686;6.217599869;208.000000;0.163213;0.894068
-29.150600433;19.178699493;8.205900192;208.000000;1.370804;0.940678
-24.490999222;17.290899277;4.926199913;208.000000;0.649664;0.885593
-29.387899399;19.871000290;6.428100109;208.000000;0.568520;0.898305
-29.986700058;19.294399261;7.912300110;208.000000;1.307713;0.970339
-30.151699066;19.243200302;6.874800205;208.000000;0.284802;0.889831
-30.120399475;19.448900223;6.653500080;208.000000;0.258766;0.877119
-29.815599442;18.680900574;7.514100075;208.000000;0.755876;0.877119
-29.462099075;19.398899078;7.258399963;208.000000;0.891941;0.906780
-29.396400452;18.363399506;7.620200157;208.000000;0.850951;0.936441
-29.145999908;19.902299881;6.518199921;208.000000;0.740659;0.889831
-29.605199814;19.034999847;3.194600105;208.000000;0.374486;0.881356
-30.203899384;19.427400589;5.992199898;208.000000;0.251625;0.919492
-30.262100220;19.583999634;6.896100044;208.000000;0.518807;0.911017
-30.166999817;18.358699799;7.502999783;208.000000;0.702211;0.885593
-30.115800858;19.788499832;7.163099766;208.000000;0.813654;0.923729
-30.452400208;19.220300674;6.597499847;208.000000;0.294779;0.881356
-30.552799225;19.227800369;7.269000053;208.000000;0.771167;0.932203
-28.731599808;20.007099152;6.608200073;208.000000;1.017118;0.885593
-30.183700562;19.416099548;6.549399853;208.000000;0.249036;0.868644
-29.648700714;19.620399475;6.273799896;208.000000;0.222460;0.838983
-30.243700027;18.754199982;7.016499996;208.000000;0.485551;0.864407
-28.823099136;20.053800583;6.598499775;208.000000;1.034038;0.855932
-29.594499588;20.062599182;7.252600193;208.000000;1.179583;0.915254
-29.697299957;19.771999359;6.958600044;208.000000;0.769664;0.923729
-29.762300491;19.124000549;6.478400230;208.000000;0.218261;0.902542
-29.375999451;20.081199646;7.103700161;208.000000;1.121921;0.915254
-29.039100647;19.125699997;8.234000206;208.000000;1.297137;0.906780
-29.280599594;19.407600403;7.216800213;208.000000;0.869579;0.898305
-29.588399887;19.673999786;7.397399902;208.000000;1.040965;0.927966
-29.424400330;19.474500656;7.623700142;208.000000;1.232951;0.932203
-29.123600006;17.826799393;8.245400429;208.000000;0.999721;0.889831
-30.632299423;19.354299545;6.469900131;208.000000;0.527650;0.894068
-28.812099457;20.321699142;7.366799831;208.000000;1.270086;0.944915
-26.174400330;21.261499405;5.499400139;208.000000;0.151724;0.889831
-27.939800262;19.106899261;6.565800190;208.000000;0.456231;0.860169
-29.112300873;19.792600632;6.130099773;208.000000;0.592686;0.864407
-29.528499603;19.339399338;6.959700108;208.000000;0.592526;0.915254
-30.426900864;19.155300140;7.637499809;208.000000;1.065544;0.974576
-29.209199905;18.103799820;8.421799660;208.000000;1.188402;0.911017
-30.562599182;19.569200516;6.077199936;208.000000;0.531187;0.915254
-30.489599228;19.043300629;7.098299980;208.000000;0.561684;0.872881
-29.113199234;19.366100311;7.382999897;208.000000;1.063869;0.927966
-29.276599884;19.276300430;8.058799744;208.000000;1.410525;0.940678
-29.791400909;20.003000259;7.370399952;208.000000;1.144578;0.932203
-28.690999985;19.717800140;8.091899872;208.000000;1.101683;0.915254
-29.902399063;19.020200729;6.669799805;208.000000;0.177542;0.872881
-29.303100586;17.697999954;5.073200226;208.000000;0.337173;0.902542
-29.141599655;19.351999283;7.660699844;208.000000;1.161215;0.932203
-29.426700592;19.461099625;6.597300053;208.000000;0.319982;0.885593
-29.147100449;19.176200867;6.131400108;208.000000;0.176813;0.860169
-29.665399551;17.957000732;7.882599831;208.000000;0.533714;0.927966
-29.582599640;18.509899139;7.515999794;208.000000;0.719975;0.881356
-29.366899490;18.017000198;7.776800156;208.000000;0.809448;0.885593
-29.964300156;19.256099701;6.552199841;208.000000;0.131404;0.911017
-27.716100693;20.844900131;8.090000153;208.000000;1.437349;0.923729
-30.381999969;19.090799332;7.169700146;208.000000;0.594398;0.911017
-30.108600616;19.082000732;6.315700054;208.000000;0.128854;0.919492
-29.724399567;20.579799652;4.404900074;208.000000;0.997017;0.970339
-28.937999725;18.656600952;7.847300053;208.000000;1.099079;0.902542
-29.122299194;19.192199707;7.133699894;208.000000;0.815640;0.889831
-29.811000824;19.323900223;7.345499992;208.000000;0.789414;0.923729
-30.313899994;18.867000580;7.524400234;208.000000;0.941648;0.970339
-28.887100220;19.329099655;7.913199902;208.000000;1.013170;0.919492
-27.663400650;22.022600174;3.033200026;208.000000;0.507163;0.872881
-27.731800079;20.314800262;6.178599834;208.000000;0.872369;0.902542
-28.828500748;19.849800110;6.464399815;208.000000;0.846383;0.872881
-30.228900909;19.013900757;6.724699974;208.000000;0.126516;0.847458
-27.249399185;20.291500092;8.262399673;208.000000;1.375833;0.949153
-24.472400665;17.876300812;4.614399910;208.000000;0.616967;0.860169
-28.917100906;19.913900375;6.874300003;208.000000;0.982259;0.927966
-30.102600098;19.053800583;6.098299980;208.000000;0.216639;0.894068
-29.620399475;18.883300781;7.011600018;208.000000;0.574075;0.927966
-29.398300171;19.810899734;7.160399914;208.000000;0.974833;0.911017
-29.986400604;19.517700195;6.657700062;208.000000;0.334439;0.877119
-30.378200531;19.328699112;6.286499977;208.000000;0.441827;0.902542
-29.087699890;19.541500092;7.302299976;208.000000;1.037102;0.898305
-30.062599182;18.402200699;8.060299873;208.000000;0.714760;0.936441
-28.653900146;19.338699341;8.661100388;208.000000;1.385467;0.919492
-28.542299271;19.901199341;6.481900215;208.000000;0.807864;0.877119
-29.552000046;19.162599564;6.869999886;208.000000;0.499097;0.915254
-29.296800613;19.495300293;6.784200191;208.000000;0.507338;0.881356
-29.536300659;18.095600128;8.079999924;208.000000;0.769607;0.919492
-28.811500549;20.051399231;7.230999947;208.000000;1.173208;0.944915
-28.847299576;20.496999741;7.059400082;208.000000;1.317434;0.923729
-28.891799927;19.340599060;6.446000099;208.000000;0.506367;0.843220
-27.635299683;21.205799103;5.072999954;208.000000;0.607929;0.915254
-30.074899673;19.105800629;7.043300152;208.000000;0.436630;0.906780
-29.919200897;16.548000336;9.180199623;208.000000;1.551255;0.974576
-29.198900223;19.138799667;5.988500118;208.000000;0.144628;0.885593
-29.199600220;19.545999527;6.962500095;208.000000;0.707983;0.889831
-30.185800552;19.249099731;7.332499981;208.000000;0.734450;0.923729
-29.536899567;19.568700790;6.631599903;208.000000;0.433452;0.860169
-28.709600449;15.848099709;8.734499931;208.000000;1.095754;0.923729
-29.570999146;17.418699265;9.003199577;208.000000;1.229723;0.949153
-29.963300705;15.934399605;8.616499901;208.000000;1.593332;0.932203
-29.343900681;15.664600372;8.965000153;208.000000;1.538714;0.966102
-29.997999191;16.889499664;8.722200394;208.000000;1.172461;0.953390
-29.926300049;15.939200401;8.509900093;208.000000;1.511632;0.970339
-29.662799835;17.388700485;9.138500214;208.000000;1.357457;0.974576
-30.107599258;16.891700745;8.827099800;208.000000;1.226353;0.957627
-29.593000412;17.254100800;9.354900360;208.000000;1.395839;0.987288
-30.023199081;16.795200348;9.132900238;208.000000;1.536064;0.970339
-29.730499268;17.211299896;9.382699966;208.000000;1.503813;0.995763
-29.531400681;15.789299965;8.902799606;208.000000;1.523810;0.927966
-29.403600693;15.502099991;8.924599648;208.000000;1.684747;0.966102
-28.490699768;15.626199722;8.480199814;208.000000;1.261893;0.940678
-28.599199295;15.694000244;8.565899849;208.000000;1.202379;0.932203
-29.348100662;15.357799530;8.814399719;208.000000;1.749861;0.974576
-29.307500839;15.980899811;9.252400398;208.000000;1.426013;0.949153
-28.641599655;15.742600441;8.942999840;208.000000;1.206662;0.970339
-29.828800201;17.101400375;9.222800255;208.000000;1.467234;0.978814
-30.167499542;16.350900650;8.401900291;208.000000;1.343419;0.944915
-29.478500366;15.679300308;8.201999664;208.000000;1.292084;0.949153
-29.840200424;16.550800323;8.428400040;208.000000;1.064043;0.932203
-29.109399796;15.437800407;8.654999733;208.000000;1.551755;0.970339
-29.624099731;15.976499557;8.525500298;208.000000;1.362579;0.940678
-29.170700073;15.413200378;8.732600212;208.000000;1.612446;0.974576
-30.227699280;15.918899536;8.701499939;208.000000;1.786231;0.949153
