//X;Y;Z;Scalar field;Approx. distances;Illuminance (PCV)
-6.851799965;-8.794400215;14.102800369;589.000000;0.560302;0.834746
-6.931900024;-9.298399925;14.126799583;589.000000;0.951252;0.847458
-6.708799839;-9.191699982;14.285900116;589.000000;0.837701;0.855932
-7.490799904;-8.482399940;13.962499619;589.000000;0.960909;0.868644
-7.514800072;-7.851799965;14.619500160;589.000000;0.744317;0.834746
-7.702600002;-9.420900345;13.977600098;589.000000;1.555368;0.894068
-6.634500027;-9.688400269;14.347399712;589.000000;1.296338;0.885593
-6.466000080;-8.470899582;14.328499794;589.000000;0.407679;0.838983
-6.892399788;-8.830900192;14.363900185;589.000000;0.731807;0.864407
-7.214000225;-8.979599953;13.991600037;589.000000;0.880688;0.847458
-7.647500038;-8.551799774;13.818900108;589.000000;1.087145;0.860169
-7.783699989;-9.394399643;14.373800278;589.000000;1.642003;0.919492
-7.470200062;-7.727600098;14.566499710;589.000000;0.576546;0.834746
-8.030799866;-9.053999901;13.879599571;589.000000;1.573077;0.906780
-7.524199963;-7.921800137;14.838700294;589.000000;0.891111;0.877119
-6.755300045;-8.098799706;13.544500351;589.000000;0.429732;0.894068
-6.279200077;-8.863800049;14.593799591;589.000000;0.837701;0.894068
-7.589200020;-9.191200256;14.266799927;589.000000;1.345273;0.889831
-7.215700150;-8.305800438;14.354399681;589.000000;0.803955;0.805085
-7.505499840;-8.328700066;13.974399567;589.000000;0.960909;0.868644
-7.704599857;-9.245100021;14.399000168;589.000000;1.567196;0.940678
-6.490600109;-8.932499886;14.451499939;589.000000;0.679466;0.800847
-7.532800198;-8.474499702;13.486700058;589.000000;0.815359;0.894068
-7.551300049;-8.227100372;13.577899933;589.000000;0.870141;0.902542
-6.583300114;-8.395299911;14.713500023;589.000000;0.803955;0.944915
-7.969999790;-9.120100021;13.983300209;589.000000;1.647617;0.889831
-7.315899849;-8.885499954;14.143500328;589.000000;0.951252;0.868644
-6.933300018;-9.175399780;14.352399826;589.000000;0.960909;0.911017
-7.614099979;-8.076499939;14.675299644;589.000000;0.911599;0.877119
-7.355500221;-8.576499939;14.414400101;589.000000;0.989317;0.881356
-6.786200047;-8.801799774;14.273500443;589.000000;0.560302;0.843220
-7.727099895;-8.528800011;13.598500252;589.000000;0.998606;0.860169
-6.640500069;-8.620200157;14.055299759;589.000000;0.235374;0.847458
-6.752299786;-9.343400002;14.244999886;589.000000;0.951252;0.881356
-7.312699795;-7.889800072;14.389499664;589.000000;0.576546;0.885593
-7.604100227;-9.262700081;14.161700249;589.000000;1.385843;0.898305
-7.736499786;-7.565100193;14.870499611;589.000000;0.911599;0.932203
-7.578999996;-9.403400421;13.974300385;589.000000;1.450941;0.855932
-6.364799976;-9.037099838;14.216699600;589.000000;0.692922;0.796610
-6.550499916;-8.903100014;14.711899757;589.000000;0.911599;0.936441
-6.310200214;-9.171899796;14.265099525;589.000000;0.803955;0.843220
-7.845399857;-8.931799889;14.154800415;589.000000;1.444564;0.915254
-7.438700199;-9.026599884;14.049500465;589.000000;1.104001;0.838983
-7.173999786;-8.809599876;15.115400314;589.000000;1.418766;0.944915
-7.782000065;-8.638400078;14.078300476;589.000000;1.238045;0.843220
-7.661499977;-8.715399742;14.179699898;589.000000;1.282013;0.889831
-7.734099865;-7.890100002;14.843400002;589.000000;0.998606;0.919492
-6.253399849;-8.868200302;13.994799614;589.000000;0.508466;0.805085
-7.763100147;-8.726099968;13.882900238;589.000000;1.252873;0.826271
-7.428599834;-9.579299927;14.334899902;589.000000;1.500988;0.961864
-7.249400139;-8.895500183;14.066499710;589.000000;0.921672;0.838983
-7.193600178;-8.486300468;13.974399567;589.000000;0.692922;0.881356
-7.939099789;-8.717399597;14.080800056;589.000000;1.543449;0.889831
-7.581500053;-8.276700020;14.558199883;589.000000;0.970471;0.885593
-7.536900043;-8.577199936;13.985099792;589.000000;1.104001;0.834746
-7.416999817;-9.413999557;14.077199936;589.000000;1.352119;0.894068
-7.622300148;-7.844999790;14.531299591;589.000000;0.744317;0.843220
-7.553100109;-7.765299797;14.810600281;589.000000;0.837701;0.915254
-7.830200195;-9.021900177;14.107500076;589.000000;1.488635;0.843220
-7.819499969;-8.723199844;13.974399567;589.000000;1.392490;0.851695
-7.757500172;-8.530300140;14.204000473;589.000000;1.252873;0.898305
-6.383600235;-9.152899742;14.739800453;589.000000;1.070024;0.936441
-6.440100193;-8.953800201;14.624799728;589.000000;0.911599;0.906780
-7.398300171;-8.969599724;14.295200348;589.000000;1.112333;0.915254
-7.614699841;-9.275699615;14.319000244;589.000000;1.418766;0.919492
-7.434700012;-9.035599709;14.222900391;589.000000;1.168997;0.868644
-7.565499783;-7.675199986;14.475199699;589.000000;0.692922;0.805085
-7.663700104;-9.396599770;13.861499786;589.000000;1.549420;0.885593
-6.525599957;-8.537899971;14.489199638;589.000000;0.679466;0.868644
-6.406599998;-9.016900063;14.307600021;589.000000;0.692922;0.843220
-7.718900204;-8.888099670;14.157400131;589.000000;1.317533;0.872881
-5.616600037;-13.761599541;11.497400284;589.000000;0.508466;0.877119
-6.080900192;-14.024600029;11.544699669;589.000000;0.891111;0.911017
-5.815199852;-14.032899857;11.786000252;589.000000;0.891111;0.940678
-5.887000084;-13.737299919;11.802599907;589.000000;0.880688;0.906780
-5.884600163;-13.935000420;11.520099640;589.000000;0.731807;0.860169
-5.441199780;-13.589500427;11.471400261;589.000000;0.271786;0.838983
-5.412300110;-13.902400017;11.773200035;589.000000;0.731807;0.932203
-5.503200054;-13.906599998;11.690799713;589.000000;0.622741;0.898305
-5.391399860;-13.858599663;11.612299919;589.000000;0.429732;0.902542
-5.597099781;-13.872300148;11.590100288;589.000000;0.508466;0.881356
-5.830299854;-13.482999802;11.855999947;589.000000;0.731807;0.898305
-5.805900097;-13.671899796;11.541099548;589.000000;0.576546;0.868644
-5.947500229;-13.942999840;11.756299973;589.000000;0.815359;0.915254
-5.289500237;-13.946599960;11.415399551;589.000000;0.407679;0.851695
-5.204400063;-13.860899925;11.270000458;589.000000;0.235374;0.860169
-5.574600220;-13.525799751;11.855099678;589.000000;0.622741;0.932203
-5.223599911;-13.777600288;11.844200134;589.000000;0.706121;0.961864
-5.842299938;-13.858799934;11.805600166;589.000000;0.803955;0.915254
-5.711900234;-13.904000282;11.836299896;589.000000;0.780647;0.940678
-5.555600166;-13.602000237;11.578700066;589.000000;0.429732;0.834746
-5.401100159;-13.720800400;11.508899689;589.000000;0.407679;0.838983
-5.977300167;-13.795100212;11.787099838;589.000000;0.880688;0.923729
-5.936699867;-13.769700050;11.938799858;589.000000;0.989317;0.949153
-5.377600193;-13.672300339;11.758399963;589.000000;0.543572;0.872881
-5.719799995;-13.917300224;11.690999985;589.000000;0.665738;0.902542
-5.792799950;-13.521599770;11.032400131;589.000000;0.407679;0.855932
-5.813499928;-13.906200409;11.639900208;589.000000;0.731807;0.915254
-5.410299778;-13.938899994;11.518799782;589.000000;0.489970;0.894068
-5.239999771;-13.837800026;11.541799545;589.000000;0.450707;0.885593
-5.715000153;-13.654700279;11.289999962;589.000000;0.303866;0.872881
-5.609600067;-13.805199623;11.663200378;589.000000;0.576546;0.864407
-5.468400002;-13.772199631;11.398799896;589.000000;0.303866;0.860169
-5.605000019;-13.487899780;11.343700409;589.000000;0.192182;0.817797
-5.455299854;-13.616800308;12.033300400;589.000000;0.792386;0.940678
-5.376999855;-13.763899803;11.860300064;589.000000;0.692922;0.961864
-5.373099804;-13.600399971;11.396499634;589.000000;0.271786;0.826271
-5.483600140;-13.686300278;11.345800400;589.000000;0.192182;0.838983
-5.698200226;-13.655699730;11.674099922;589.000000;0.607733;0.813559
-5.766499996;-13.797100067;11.898500443;589.000000;0.803955;0.966102
-5.693299770;-13.839599609;11.537400246;589.000000;0.508466;0.877119
-5.990900040;-13.945599556;11.847499847;589.000000;0.911599;0.974576
-5.676199913;-14.069999695;11.775300026;589.000000;0.837701;0.932203
-5.821800232;-13.455599785;12.058799744;589.000000;0.921672;0.957627
-5.630799770;-13.496700287;11.446999550;589.000000;0.384364;0.838983
-5.716499805;-13.940999985;11.533200264;589.000000;0.560302;0.894068
-5.110199928;-14.132599831;11.171099663;589.000000;0.489970;0.902542
-5.903200150;-13.626799583;11.893600464;589.000000;0.870141;0.923729
-5.373499870;-13.771800041;11.660900116;589.000000;0.560302;0.881356
-5.557700157;-13.856100082;11.491900444;589.000000;0.332869;0.830508
-5.104300022;-13.779800415;11.262700081;589.000000;0.332869;0.855932
-5.849400043;-13.680100441;11.728400230;589.000000;0.679466;0.838983
-5.191599846;-13.908699989;11.455100060;589.000000;0.470748;0.877119
-6.037600040;-14.005999565;11.769700050;589.000000;1.043815;0.944915
-5.311500072;-13.885000229;11.301199913;589.000000;0.332869;0.881356
-5.185299873;-13.954999924;11.236800194;589.000000;0.407679;0.868644
-5.448500156;-13.628299713;11.904100418;589.000000;0.679466;0.944915
-5.497399807;-13.985799789;11.236000061;589.000000;0.332869;0.902542
-5.309000015;-13.892399788;11.764399529;589.000000;0.622741;0.927966
-5.539500237;-13.650699615;11.467300415;589.000000;0.303866;0.855932
-5.331399918;-13.840000153;11.468500137;589.000000;0.332869;0.864407
-5.594999790;-14.060199738;11.695799828;589.000000;0.692922;0.927966
-5.787099838;-13.665399551;11.422200203;589.000000;0.489970;0.826271
-5.218599796;-13.722299576;11.341699600;589.000000;0.192182;0.894068
-5.682000160;-13.570699692;11.861800194;589.000000;0.665738;0.911017
-5.340499878;-13.696000099;11.370200157;589.000000;0.271786;0.817797
-5.898900032;-13.865099907;11.693300247;589.000000;0.815359;0.889831
-5.733699799;-13.449999809;11.875399590;589.000000;0.622741;0.940678
-5.276800156;-13.902199745;11.637000084;589.000000;0.622741;0.940678
-5.110899925;-13.907899857;11.095600128;589.000000;0.384364;0.847458
-5.159800053;-13.771400452;11.763500214;589.000000;0.622741;0.927966
-5.616099834;-13.534399986;11.711700439;589.000000;0.560302;0.898305
-5.606200218;-13.660699844;11.732199669;589.000000;0.560302;0.877119
-6.005599976;-13.880900383;11.525400162;589.000000;0.731807;0.838983
-5.841199875;-13.564399719;11.315799713;589.000000;0.429732;0.838983
-5.475500107;-14.036299706;11.786700249;589.000000;0.803955;0.944915
-5.269899845;-13.689299583;11.808300018;589.000000;0.692922;0.923729
-5.610300064;-13.926500320;11.802399635;589.000000;0.744317;0.932203
-5.504499912;-13.796699524;11.627400398;589.000000;0.450707;0.843220
-5.808499813;-13.521699905;11.981800079;589.000000;0.837701;0.949153
-5.762800217;-14.019900322;11.688500404;589.000000;0.792386;0.894068
-5.897099972;-14.057000160;11.848999977;589.000000;0.960909;0.953390
-5.817500114;-13.537699699;11.212800026;589.000000;0.407679;0.834746
-5.700399876;-13.679800034;11.778599739;589.000000;0.731807;0.877119
-5.767899990;-13.563699722;11.586500168;589.000000;0.560302;0.864407
-5.265200138;-13.740900040;11.485500336;589.000000;0.332869;0.834746
-5.580699921;-13.603599548;11.384499550;589.000000;0.303866;0.822034
-5.662899971;-9.690600395;9.120100021;589.000000;0.592344;0.932203
-6.346799850;-10.347700119;10.266599655;589.000000;0.560302;0.944915
-6.383399963;-10.074299812;8.787199974;589.000000;0.407679;0.855932
-5.359399796;-9.503999710;9.063099861;589.000000;0.450707;0.851695
-5.741700172;-9.509300232;9.041199684;589.000000;0.332869;0.872881
-6.541100025;-10.263299942;9.836600304;589.000000;0.192182;0.872881
-6.339700222;-10.266300201;8.871500015;589.000000;0.332869;0.881356
-6.462500095;-10.089300156;8.881799698;589.000000;0.384364;0.885593
-6.391699791;-10.218099594;10.052300453;589.000000;0.407679;0.851695
-6.422800064;-10.218099594;8.765899658;589.000000;0.407679;0.838983
-4.205200195;-10.154500008;9.783900261;589.000000;0.271786;0.872881
-5.338300228;-8.999099731;8.789500237;589.000000;0.332869;0.894068
-5.430900097;-9.092800140;9.492799759;589.000000;0.837701;0.894068
-6.495100021;-10.305899620;9.935799599;589.000000;0.235374;0.855932
-5.817399979;-9.024900436;9.179699898;589.000000;0.450707;0.864407
-5.408599854;-8.896400452;9.225500107;589.000000;0.622741;0.927966
-6.286799908;-10.357600212;8.637100220;589.000000;0.407679;0.838983
-6.268000126;-10.049200058;9.708000183;589.000000;0.429732;0.851695
-5.297599792;-8.960000038;9.067999840;589.000000;0.560302;0.919492
-5.456399918;-8.960800171;9.130499840;589.000000;0.508466;0.872881
-6.231400013;-10.052399635;8.674699783;589.000000;0.637395;0.872881
-5.702499866;-9.587100029;8.978699684;589.000000;0.407679;0.847458
-6.461900234;-9.909999847;10.506500244;589.000000;0.744317;0.919492
-6.246699810;-10.385499954;10.221199989;589.000000;0.637395;0.940678
-6.484499931;-10.199700356;10.134699821;589.000000;0.332869;0.919492
-5.526899815;-9.809700012;8.645000458;589.000000;0.543572;0.906780
-5.494599819;-9.217700005;9.455200195;589.000000;0.679466;0.906780
-6.449800014;-10.016400337;10.135700226;589.000000;0.332869;0.868644
-6.355199814;-10.288499832;9.736100197;589.000000;0.303866;0.860169
-5.327300072;-8.981699944;8.666399956;589.000000;0.303866;0.847458
-5.442100048;-9.013999939;8.637800217;589.000000;0.192182;0.885593
-6.321100235;-10.265999794;10.145000458;589.000000;0.508466;0.894068
-5.647600174;-9.140500069;8.983699799;589.000000;0.271786;0.868644
-6.437300205;-10.275099754;8.603099823;589.000000;0.489970;0.864407
-5.510499954;-9.318400383;9.073599815;589.000000;0.407679;0.902542
-6.296500206;-9.860099792;9.769000053;589.000000;0.384364;0.834746
-6.338300228;-9.957799911;9.975299835;589.000000;0.332869;0.843220
-6.495100021;-10.293800354;10.089500427;589.000000;0.332869;0.877119
-6.535099983;-10.124699593;9.906700134;589.000000;0.192182;0.796610
-6.330800056;-9.671600342;10.343899727;589.000000;0.731807;0.885593
-5.336699963;-9.524999619;8.883600235;589.000000;0.407679;0.894068
-6.398300171;-10.210599899;8.942199707;589.000000;0.235374;0.855932
-5.426799774;-9.069800377;9.258999825;589.000000;0.576546;0.864407
-6.351200104;-10.293499947;8.747699738;589.000000;0.407679;0.855932
-5.469500065;-9.115500450;9.391300201;589.000000;0.692922;0.927966
-6.376500130;-10.050700188;9.994400024;589.000000;0.332869;0.838983
-5.618199825;-9.093999863;9.310700417;589.000000;0.560302;0.919492
-6.631499767;-10.293299675;9.937999725;589.000000;0.192182;0.838983
-6.528999805;-10.082400322;10.087599754;589.000000;0.303866;0.889831
-6.342400074;-9.959600449;9.000399590;589.000000;0.407679;0.872881
-6.289199829;-9.726200104;10.040599823;589.000000;0.637395;0.885593
-6.383699894;-9.816300392;10.624500275;589.000000;0.901413;0.936441
-5.406799793;-9.720000267;8.720499992;589.000000;0.429732;0.894068
-5.593599796;-9.295299530;9.165900230;589.000000;0.407679;0.902542
-5.433899879;-9.620499611;9.012999535;589.000000;0.407679;0.889831
-5.872600079;-9.131199837;9.078100204;589.000000;0.429732;0.877119
-6.311600208;-9.909899712;10.263999939;589.000000;0.560302;0.911017
-6.417200089;-10.119700432;10.161299706;589.000000;0.489970;0.898305
-6.482600212;-10.208999634;9.992300034;589.000000;0.235374;0.838983
-6.643400192;-10.318099976;10.174200058;589.000000;0.429732;0.889831
-5.290500164;-9.589200020;8.796799660;589.000000;0.407679;0.885593
-5.226500034;-9.105699539;9.103099823;589.000000;0.508466;0.868644
-6.401899815;-9.904299736;10.220000267;589.000000;0.560302;0.877119
-6.291800022;-10.176899910;8.621299744;589.000000;0.592344;0.843220
-6.433800220;-10.096300125;8.661000252;589.000000;0.489970;0.868644
-5.278299809;-9.302300453;9.416500092;589.000000;0.731807;0.889831
-5.229899883;-9.079899788;8.622300148;589.000000;0.303866;0.855932
-5.526400089;-9.027000427;9.158200264;589.000000;0.429732;0.889831
-5.898499966;-9.098999977;8.944800377;589.000000;0.407679;0.860169
-6.285699844;-9.957300186;9.859499931;589.000000;0.429732;0.851695
-6.489099979;-10.035499573;9.978199959;589.000000;0.235374;0.834746
-6.281400204;-9.799300194;10.203700066;589.000000;0.637395;0.885593
-6.430699825;-10.305299759;9.829899788;589.000000;0.192182;0.817797
-6.346199989;-10.140199661;9.902899742;589.000000;0.303866;0.847458
-5.291999817;-9.551500320;8.969099998;589.000000;0.470748;0.851695
-6.457699776;-10.278800011;9.727499962;589.000000;0.192182;0.834746
-5.329899788;-9.182299614;9.194499969;589.000000;0.607733;0.894068
-5.861400127;-9.061200142;9.277099609;589.000000;0.576546;0.927966
-6.190800190;-9.697199821;10.359700203;589.000000;0.792386;0.927966
-6.412799835;-9.857700348;10.339699745;589.000000;0.665738;0.911017
-5.670400143;-9.444000244;9.168000221;589.000000;0.450707;0.902542
-6.238999844;-9.673999786;10.265800476;589.000000;0.706121;0.885593
-6.444099903;-10.347900391;9.472000122;589.000000;0.192182;0.872881
-5.630499840;-8.998700142;8.961400032;589.000000;0.303866;0.902542
-6.366899967;-9.844300270;9.932100296;589.000000;0.407679;0.881356
-5.603700161;-9.398099899;8.885899544;589.000000;0.192182;0.830508
-6.355599880;-10.394200325;8.817099571;589.000000;0.235374;0.843220
-6.259099960;-9.770799637;10.328200340;589.000000;0.792386;0.898305
-6.512300014;-10.253199577;8.719900131;589.000000;0.384364;0.843220
-6.242000103;-10.145000458;9.057600021;589.000000;0.332869;0.894068
-5.632100105;-9.671199799;9.003399849;589.000000;0.508466;0.851695
-5.718500137;-9.639100075;9.197899818;589.000000;0.622741;0.894068
-5.342100143;-9.774600029;8.920000076;589.000000;0.508466;0.872881
-5.310500145;-9.175700188;8.672599792;589.000000;0.271786;0.864407
-5.752099991;-9.180199623;9.067899704;589.000000;0.429732;0.885593
-5.408599854;-9.389200211;8.852100372;589.000000;0.235374;0.872881
-5.718999863;-9.103099823;9.282600403;589.000000;0.560302;0.898305
-5.747300148;-9.630900383;8.794099808;589.000000;0.407679;0.864407
-5.870999813;-9.665399551;8.782899857;589.000000;0.508466;0.898305
-6.315999985;-10.063099861;9.820699692;589.000000;0.271786;0.805085
-3.642800093;-9.336400032;9.814399719;589.000000;0.192182;0.881356
-6.306600094;-9.962400436;8.894499779;589.000000;0.508466;0.906780
-5.474500179;-9.278200150;8.601900101;589.000000;0.192182;0.881356
-5.496500015;-8.851300240;8.930000305;589.000000;0.384364;0.898305
-5.681099892;-9.247200012;9.138199806;589.000000;0.429732;0.894068
-5.278699875;-9.115400314;8.898900032;589.000000;0.303866;0.898305
-6.399700165;-10.121800423;8.497200012;589.000000;0.622741;0.830508
-6.414500237;-10.053899765;9.899499893;589.000000;0.332869;0.809322
-5.311500072;-9.204400063;9.392700195;589.000000;0.731807;0.915254
-5.383500099;-8.993000031;9.202699661;589.000000;0.576546;0.889831
-5.367499828;-9.559000015;9.151300430;589.000000;0.508466;0.885593
-6.499499798;-10.328000069;9.645199776;589.000000;0.192182;0.838983
-6.345799923;-9.894800186;10.433500290;589.000000;0.780647;0.915254
-6.337999821;-9.700900078;10.161299706;589.000000;0.637395;0.855932
-5.352700233;-8.935899734;8.942600250;589.000000;0.407679;0.885593
-5.686200142;-9.020500183;9.142600060;589.000000;0.429732;0.889831
-3.951900005;-6.661799908;9.212699890;589.000000;0.508466;0.889831
-4.081699848;-6.686100006;9.555299759;589.000000;0.303866;0.851695
-3.711299896;-9.231399536;9.950799942;589.000000;0.407679;0.894068
-4.056600094;-6.685800076;9.034700394;589.000000;0.407679;0.864407
-3.865000010;-6.698900223;8.796600342;589.000000;0.384364;0.822034
-3.664499998;-6.904500008;9.136699677;589.000000;0.271786;0.898305
-4.050099850;-6.713799953;9.355199814;589.000000;0.384364;0.881356
-3.654200077;-9.151300430;9.628800392;589.000000;0.271786;0.885593
-3.587500095;-7.028399944;8.998399734;589.000000;0.235374;0.877119
-3.874900103;-6.631299973;8.971099854;589.000000;0.508466;0.847458
-4.077600002;-6.680699825;9.656000137;589.000000;0.192182;0.872881
-3.701100111;-9.122500420;9.996399879;589.000000;0.384364;0.881356
-3.985199928;-6.693600178;8.784600258;589.000000;0.407679;0.911017
-4.065000057;-6.701000214;9.191100121;589.000000;0.429732;0.877119
-4.197400093;-6.669899940;9.831700325;589.000000;0.192182;0.894068
-3.961199999;-6.614699841;9.329600334;589.000000;0.332869;0.911017
-4.622200012;-6.624899864;10.628399849;589.000000;0.192182;0.885593
-4.172200203;-6.692399979;9.467800140;589.000000;0.303866;0.906780
-3.215100050;-7.039000034;8.825599670;589.000000;0.192182;0.898305
-3.916699886;-6.601600170;9.128399849;589.000000;0.560302;0.851695
-4.193500042;-6.684599876;9.725299835;589.000000;0.235374;0.932203
-3.301000118;-7.106699944;8.863300323;589.000000;0.192182;0.915254
-3.636399984;-7.014299870;8.894200325;589.000000;0.192182;0.906780
-4.050700188;-6.689000130;9.454000473;589.000000;0.384364;0.847458
-4.202700138;-6.691699982;9.621199608;589.000000;0.235374;0.877119
-3.725399971;-5.356800079;14.316100121;589.000000;0.706121;0.932203
-3.661400080;-4.977300167;14.105400085;589.000000;0.607733;0.915254
-2.964900017;-5.441899776;14.115400314;589.000000;0.911599;0.949153
-4.212999821;-5.187900066;14.163200378;589.000000;0.768728;0.927966
-2.952300072;-5.613900185;14.032699585;589.000000;0.891111;0.961864
-3.418400049;-5.357399940;13.848500252;589.000000;0.407679;0.906780
-2.123100042;-5.701300144;13.476699829;589.000000;1.034931;0.949153
-3.574500084;-5.441800117;14.235799789;589.000000;0.731807;0.911017
-3.556299925;-5.271200180;13.721099854;589.000000;0.192182;0.889831
-3.370800018;-5.131700039;14.422800064;589.000000;0.870141;0.936441
-3.664400101;-4.729899883;14.159600258;589.000000;0.622741;0.949153
-3.799200058;-5.106299877;14.068799973;589.000000;0.450707;0.889831
-3.221299887;-5.241700172;14.134300232;589.000000;0.679466;0.932203
-3.649600029;-5.006499767;14.667900085;589.000000;1.120603;0.987288
-4.047999859;-5.674600124;14.324399948;589.000000;0.891111;0.953390
-3.844500065;-4.690899849;13.767499924;589.000000;0.489970;0.911017
-3.202500105;-5.619400024;13.873399734;589.000000;0.637395;0.911017
-3.905600071;-5.329699993;14.599399567;589.000000;0.998606;0.983051
-3.534699917;-5.189499855;14.541700363;589.000000;0.960909;0.957627
-1.942399979;-5.540699959;13.617300034;589.000000;1.223038;0.987288
-3.084300041;-5.474199772;14.088500023;589.000000;0.815359;0.936441
-3.602900028;-5.410600185;14.121399879;589.000000;0.560302;0.919492
-3.605400085;-4.975200176;13.631999969;589.000000;0.192182;0.885593
-3.682800055;-4.571899891;14.489199638;589.000000;0.989317;0.987288
-3.491899967;-5.355800152;14.390000343;589.000000;0.837701;0.944915
-3.683099985;-5.389699936;14.056400299;589.000000;0.429732;0.898305
-3.388999939;-5.137800217;14.246000290;589.000000;0.744317;0.923729
-3.681299925;-5.382100105;14.611200333;589.000000;0.960909;0.995763
-4.155200005;-5.688499928;13.996999741;589.000000;0.792386;0.860169
-3.470000029;-5.470099926;14.240099907;589.000000;0.744317;0.932203
-3.695499897;-4.663400173;14.362700462;589.000000;0.870141;0.961864
-3.627399921;-5.152500153;14.444100380;589.000000;0.826606;0.936441
-3.599600077;-5.348299980;14.292699814;589.000000;0.692922;0.927966
-4.336400032;-6.246300220;13.746100426;589.000000;0.837701;0.847458
-4.502299786;-6.197299957;13.557700157;589.000000;0.744317;0.872881
-4.179800034;-5.245100021;13.843199730;589.000000;0.576546;0.898305
-3.667299986;-4.868800163;13.802000046;589.000000;0.332869;0.894068
-3.953000069;-5.893899918;14.244000435;589.000000;0.998606;0.961864
-4.263500214;-6.622700214;13.512900352;589.000000;0.911599;0.911017
-3.500999928;-5.503799915;14.390600204;589.000000;0.870141;0.974576
-3.555900097;-4.762100220;13.948499680;589.000000;0.508466;0.898305
-3.903100014;-5.398300171;14.448399544;589.000000;0.870141;0.974576
-3.677400112;-5.085000038;14.053500175;589.000000;0.429732;0.915254
-4.461100101;-6.272999763;13.745100021;589.000000;0.921672;0.902542
-3.638400078;-4.769999981;14.008999825;589.000000;0.560302;0.902542
-3.983000040;-5.855000019;13.900099754;589.000000;0.837701;0.881356
-4.219099998;-5.582699776;13.930199623;589.000000;0.692922;0.860169
-3.316400051;-5.642199993;13.978400230;589.000000;0.637395;0.915254
-3.361799955;-5.560500145;14.028599739;589.000000;0.560302;0.953390
-3.015799999;-5.726799965;13.980500221;589.000000;0.960909;0.923729
-4.015299797;-5.884699821;13.616499901;589.000000;0.731807;0.868644
-4.006199837;-5.348299980;14.293399811;589.000000;0.803955;0.936441
-3.665699959;-4.741700172;13.764200211;589.000000;0.303866;0.902542
-4.196899891;-6.448800087;13.438599586;589.000000;0.870141;0.889831
-3.859200001;-5.758699894;14.154500008;589.000000;0.815359;0.915254
-3.721999884;-5.305399895;14.402799606;589.000000;0.837701;0.927966
-3.795200109;-5.432000160;14.173100471;589.000000;0.576546;0.927966
-4.098800182;-5.788899899;13.961199760;589.000000;0.792386;0.872881
-2.969599962;-5.147900105;14.494500160;589.000000;1.168997;0.953390
-4.002900124;-5.765799999;14.210800171;589.000000;0.870141;0.944915
-4.282800198;-5.323699951;13.888400078;589.000000;0.508466;0.860169
-4.344600201;-5.644299984;14.070599556;589.000000;0.731807;0.881356
-3.567899942;-5.199500084;14.294599533;589.000000;0.692922;0.911017
-3.310600042;-5.325699806;14.041999817;589.000000;0.508466;0.911017
-4.378699780;-5.688199997;13.834600449;589.000000;0.622741;0.860169
-4.264400005;-5.728400230;13.896400452;589.000000;0.665738;0.860169
-3.977099895;-5.946800232;13.449000359;589.000000;0.731807;0.906780
-4.103000164;-5.877099991;13.668899536;589.000000;0.731807;0.881356
-3.924599886;-5.993299961;13.351099968;589.000000;0.803955;0.911017
-4.374800205;-6.336200237;13.508700371;589.000000;0.731807;0.881356
-3.734600067;-4.667799950;13.407500267;589.000000;0.271786;0.894068
-4.540800095;-6.139599800;13.668899536;589.000000;0.731807;0.881356
-3.693900108;-5.355800152;14.199899673;589.000000;0.560302;0.894068
-4.357299805;-6.574800014;13.600000381;589.000000;0.998606;0.902542
-3.911999941;-5.394100189;14.300600052;589.000000;0.744317;0.936441
-3.988199949;-5.418499947;14.378000259;589.000000;0.921672;0.974576
-3.688100100;-4.863999844;14.125599861;589.000000;0.665738;0.927966
-3.558300018;-4.870299816;13.560600281;589.000000;0.192182;0.919492
-4.099999905;-6.197999954;13.340200424;589.000000;0.731807;0.898305
-3.506200075;-4.831500053;14.430399895;589.000000;0.870141;0.932203
-4.771299839;-6.424499989;13.550900459;589.000000;0.780647;0.868644
-3.560699940;-5.050499916;14.501299858;589.000000;0.970471;0.944915
-4.025000095;-5.886099815;13.741100311;589.000000;0.792386;0.838983
-3.975600004;-5.426799774;14.089900017;589.000000;0.622741;0.923729
-3.011399984;-5.522799969;14.173399925;589.000000;0.911599;0.953390
-3.957700014;-5.777200222;14.037099838;589.000000;0.731807;0.898305
-2.881900072;-5.544499874;13.985099792;589.000000;0.951252;0.940678
-4.259900093;-5.295000076;14.003999710;589.000000;0.607733;0.889831
-3.974299908;-5.721199989;14.122699738;589.000000;0.815359;0.936441
-3.587300062;-5.197199821;13.929400444;589.000000;0.271786;0.902542
-4.061200142;-6.041500092;13.284600258;589.000000;0.692922;0.851695
-4.087699890;-6.541100025;13.252099991;589.000000;0.911599;0.851695
-3.044600010;-5.631999969;14.197500229;589.000000;0.870141;0.978814
-4.238200188;-6.658100128;13.253000259;589.000000;0.837701;0.813559
-3.772300005;-5.028299809;13.829000473;589.000000;0.407679;0.894068
-3.591900110;-4.690899849;14.265700340;589.000000;0.744317;0.961864
-3.807600021;-5.534299850;14.168700218;589.000000;0.622741;0.944915
-3.707499981;-4.681799889;14.245200157;589.000000;0.744317;0.949153
-3.485300064;-5.208000183;14.452300072;589.000000;0.826606;0.919492
-3.579699993;-4.772600174;13.421299934;589.000000;0.192182;0.902542
-3.881000042;-5.513500214;13.874500275;589.000000;0.470748;0.919492
-3.896600008;-5.026999950;14.165499687;589.000000;0.665738;0.936441
-3.888900042;-5.561800003;13.773500443;589.000000;0.407679;0.868644
-7.427999973;-7.479499817;14.601699829;589.000000;0.560302;0.834746
-7.338500023;-7.026199818;14.839799881;589.000000;0.792386;0.872881
-7.346000195;-7.452400208;14.504699707;589.000000;0.450707;0.826271
-6.259600163;-7.516099930;15.122500420;589.000000;0.870141;0.940678
-6.602099895;-6.698400021;14.751299858;589.000000;0.870141;0.881356
-7.644999981;-7.437500000;14.814800262;589.000000;0.803955;0.885593
-6.604899883;-6.505700111;15.138999939;589.000000;1.289195;0.966102
-5.170700073;-6.494699955;13.671699524;589.000000;0.706121;0.923729
-7.671899796;-7.426599979;14.708000183;589.000000;0.870141;0.877119
-6.684800148;-6.616000175;14.955300331;589.000000;1.104001;0.923729
-7.414000034;-6.715300083;14.157799721;589.000000;0.880688;0.898305
-7.617199898;-7.327300072;15.065099716;589.000000;0.998606;0.902542
-6.618100166;-6.509799957;14.847200394;589.000000;1.168997;0.868644
-6.676300049;-6.605100155;14.717599869;589.000000;0.998606;0.847458
-5.007299900;-6.334000111;13.202500343;589.000000;0.303866;0.830508
-7.670700073;-7.274099827;14.831199646;589.000000;0.951252;0.860169
-6.708399773;-6.472499847;14.873200417;589.000000;1.161071;0.881356
-7.211999893;-7.685999870;14.483699799;589.000000;0.303866;0.860169
-7.681600094;-7.163400173;14.931500435;589.000000;1.061359;0.940678
-6.748099804;-6.698699951;14.996100426;589.000000;0.979939;0.898305
-7.660799980;-7.506199837;14.916199684;589.000000;0.979939;0.889831
-5.312399864;-6.791100025;13.465100288;589.000000;0.576546;0.894068
-5.071300030;-6.429900169;13.379199982;589.000000;0.332869;0.817797
-5.102700233;-6.554500103;13.534399986;589.000000;0.508466;0.860169
-6.819200039;-6.614299774;15.068599701;589.000000;1.168997;0.936441
-7.220200062;-7.413899899;14.638400078;589.000000;0.407679;0.843220
-6.666200161;-6.358399868;14.916999817;589.000000;1.345273;0.949153
-7.362400055;-6.718999863;14.971300125;589.000000;1.061359;0.936441
-5.785600185;-7.844500065;13.104800224;589.000000;0.271786;0.864407
-7.663700104;-7.491799831;14.546500206;589.000000;0.826606;0.889831
-5.060800076;-6.632199764;13.484100342;589.000000;0.560302;0.864407
-7.762100220;-7.111199856;14.813199997;589.000000;0.998606;0.898305
-7.592800140;-7.318699837;14.882499695;589.000000;0.837701;0.834746
-5.172599792;-6.890699863;13.536199570;589.000000;0.780647;0.923729
-7.379799843;-7.682600021;14.625900269;589.000000;0.622741;0.834746
-7.225500107;-7.497000217;14.722200394;589.000000;0.384364;0.889831
-5.076799870;-6.292600155;13.400400162;589.000000;0.429732;0.864407
-7.111499786;-7.559000015;14.400400162;589.000000;0.271786;0.855932
-7.546999931;-7.417399883;14.624400139;589.000000;0.744317;0.843220
-6.795499802;-6.426899910;14.960700035;589.000000;1.215465;0.923729
-7.403600216;-6.891200066;14.160099983;589.000000;0.780647;0.919492
-6.443299770;-6.793399811;14.867799759;589.000000;0.951252;0.902542
-7.259300232;-6.967400074;14.801500320;589.000000;0.792386;0.843220
-5.185100079;-6.748000145;13.488800049;589.000000;0.592344;0.902542
-5.733600140;-7.993700027;13.190799713;589.000000;0.450707;0.855932
-6.622700214;-7.094799995;15.140899658;589.000000;0.803955;0.944915
-4.941699982;-6.371500015;13.277099609;589.000000;0.384364;0.877119
-7.368500233;-7.118999958;14.958700180;589.000000;0.792386;0.855932
-5.083099842;-6.408899784;13.275699615;589.000000;0.332869;0.838983
-5.044799805;-6.420199871;13.519599915;589.000000;0.508466;0.868644
-5.089200020;-6.254399776;13.221099854;589.000000;0.192182;0.851695
-5.189799786;-6.886799812;13.371700287;589.000000;0.622741;0.855932
-6.587699890;-7.518899918;14.520899773;589.000000;0.192182;0.881356
-5.879499912;-7.892000198;13.230600357;589.000000;0.332869;0.889831
-7.296199799;-6.923299789;14.901399612;589.000000;0.960909;0.868644
-7.394299984;-6.817800045;14.035300255;589.000000;0.768728;0.894068
-7.197299957;-6.755099773;14.344900131;589.000000;0.780647;0.877119
-7.583600044;-7.184199810;14.731100082;589.000000;0.837701;0.894068
-5.741199970;-7.631299973;13.124199867;589.000000;0.429732;0.855932
-6.889999866;-6.513199806;15.044400215;589.000000;1.282013;0.902542
-5.040500164;-6.543300152;13.383399963;589.000000;0.470748;0.826271
-7.127099991;-7.557000160;14.499699593;589.000000;0.303866;0.864407
-5.267199993;-6.666100025;13.657799721;589.000000;0.679466;0.923729
-7.464000225;-7.610400200;14.825599670;589.000000;0.679466;0.894068
-7.199299812;-7.117499828;14.627300262;589.000000;0.560302;0.847458
-6.709400177;-6.588699818;14.817000389;589.000000;1.034931;0.877119
-6.429699898;-6.992800236;14.426600456;589.000000;0.607733;0.927966
-7.481299877;-6.820000172;13.962200165;589.000000;0.768728;0.860169
-7.173600197;-7.531000137;14.626600266;589.000000;0.384364;0.872881
-7.528999805;-7.276700020;14.803600311;589.000000;0.837701;0.877119
-7.383399963;-6.716000080;14.041600227;589.000000;0.870141;0.915254
-6.624000072;-6.972700119;14.758899689;589.000000;0.692922;0.881356
-7.613999844;-7.183899879;15.003800392;589.000000;0.960909;0.919492
-5.258699894;-6.900800228;13.475999832;589.000000;0.679466;0.885593
-4.988900185;-6.327199936;13.443499565;589.000000;0.489970;0.881356
-7.268300056;-6.830599785;14.861499786;589.000000;0.891111;0.902542
-5.199600220;-6.364999771;13.225899696;589.000000;0.192182;0.864407
-6.680699825;-6.448200226;14.776399612;589.000000;1.168997;0.881356
-7.407000065;-6.706099987;14.321999550;589.000000;0.911599;0.919492
-6.806300163;-6.538199902;14.943099976;589.000000;1.095605;0.906780
-6.909500122;-6.632400036;15.177399635;589.000000;1.252873;0.940678
-6.628099918;-7.491399765;14.610099792;589.000000;0.192182;0.864407
-6.479400158;-6.601900101;14.822099686;589.000000;1.070024;0.898305
-6.145899773;-7.515600204;15.224399567;589.000000;1.061359;0.978814
-5.057300091;-6.757900238;13.606499672;589.000000;0.731807;0.851695
-7.483500004;-7.558300018;14.700300217;589.000000;0.607733;0.788136
-4.972899914;-6.522600174;13.593000412;589.000000;0.622741;0.898305
-5.859799862;-7.931399822;13.367300034;589.000000;0.407679;0.915254
-6.658899784;-6.701000214;14.862700462;589.000000;0.921672;0.855932
-5.118800163;-6.452799797;13.583000183;589.000000;0.576546;0.877119
-6.532599926;-6.534900188;14.920499802;589.000000;1.128813;0.915254
-7.631599903;-7.329899788;14.663999557;589.000000;0.780647;0.864407
-7.092999935;-7.487999916;14.332300186;589.000000;0.192182;0.872881
-5.454699993;-6.526100159;13.499400139;589.000000;0.508466;0.894068
-7.457300186;-7.368199825;14.922400475;589.000000;0.780647;0.898305
-7.265100002;-7.728199959;14.570300102;589.000000;0.450707;0.881356
-6.739399910;-6.535299778;15.041899681;589.000000;1.168997;0.927966
-7.551199913;-7.358200073;14.986499786;589.000000;0.880688;0.911017
-7.386499882;-7.389999866;14.800299644;589.000000;0.692922;0.864407
-5.179699898;-6.303599834;13.496500015;589.000000;0.429732;0.936441
-5.360300064;-6.495399952;13.331100464;589.000000;0.332869;0.915254
-7.563300133;-7.181799889;14.896900177;589.000000;0.960909;0.877119
-7.532499790;-6.764500141;14.141599655;589.000000;0.970471;0.923729
-7.549600124;-7.512800217;14.855400085;589.000000;0.792386;0.864407
-7.396599770;-7.649000168;14.733900070;589.000000;0.622741;0.860169
-4.943399906;-6.499000072;13.417200089;589.000000;0.508466;0.834746
-5.572299957;-7.646800041;13.137200356;589.000000;0.576546;0.872881
-6.559599876;-6.974299908;14.632800102;589.000000;0.665738;0.860169
-7.725399971;-7.298399925;14.969300270;589.000000;1.016931;0.915254
-6.747099876;-6.929599762;14.966300011;589.000000;0.870141;0.902542
-7.313099861;-7.445899963;14.890000343;589.000000;0.592344;0.855932
-6.306200027;-7.416500092;15.277299881;589.000000;0.921672;0.936441
-5.300600052;-6.868899822;13.388799667;589.000000;0.607733;0.851695
-6.560999870;-6.507299900;15.018500328;589.000000;1.245481;0.940678
-7.777400017;-7.309899807;14.869299889;589.000000;0.951252;0.932203
-6.862999916;-6.513599873;15.162500381;589.000000;1.282013;0.927966
-6.776599884;-6.633299828;14.912599564;589.000000;1.095605;0.860169
-7.227499962;-7.109300137;14.748900414;589.000000;0.560302;0.868644
-7.451900005;-8.166199684;15.335599899;589.000000;1.289195;0.995763
-7.001100063;-8.703100204;15.347299576;589.000000;1.555368;0.940678
-6.855500221;-8.652600288;15.393500328;589.000000;1.444564;0.949153
-7.396299839;-8.361399651;15.297300339;589.000000;1.274791;0.949153
-6.705599785;-8.870499611;15.557499886;589.000000;1.702736;0.974576
-6.832600117;-8.739999771;15.290599823;589.000000;1.412243;0.940678
-6.766499996;-8.659799576;15.568699837;589.000000;1.537455;0.978814
-7.367400169;-8.464900017;15.244500160;589.000000;1.317533;0.932203
-6.064400196;-7.329999924;15.543399811;589.000000;1.310506;1.000000
-6.131599903;-7.571899891;15.427499771;589.000000;1.168997;0.966102
-6.211599827;-7.519100189;15.595899582;589.000000;1.338392;1.000000
-2.250000000;-4.602600098;12.471400261;589.000000;0.508466;0.830508
-2.144500017;-4.812799931;12.449099541;589.000000;0.450707;0.847458
-2.724600077;-3.880100012;12.256299973;589.000000;1.087145;0.860169
-2.222599983;-4.636899948;12.266799927;589.000000;0.407679;0.813559
-2.659600019;-4.055399895;12.313300133;589.000000;0.960909;0.872881
-3.532599926;-4.368599892;12.470199585;589.000000;0.470748;0.847458
-3.022200108;-3.922699928;12.312399864;589.000000;1.095605;0.864407
-3.712300062;-4.314499855;12.294099808;589.000000;0.332869;0.817797
-2.798399925;-4.709000111;12.371600151;589.000000;0.332869;0.775424
-3.136100054;-3.800499916;12.698800087;589.000000;0.960909;0.902542
-2.152100086;-4.671400070;12.589500427;589.000000;0.560302;0.868644
-3.134999990;-3.896100044;12.219200134;589.000000;0.951252;0.847458
-3.565000057;-4.292600155;12.599300385;589.000000;0.637395;0.860169
-3.222599983;-3.772799969;12.627499580;589.000000;0.826606;0.902542
-2.233000040;-4.794799805;12.199999809;589.000000;0.303866;0.775424
-2.185800076;-4.705500126;12.372799873;589.000000;0.489970;0.792373
-3.516799927;-4.346700191;12.363599777;589.000000;0.508466;0.792373
-3.108200073;-3.980099916;12.367300034;589.000000;0.960909;0.877119
-2.958699942;-3.962100029;12.512100220;589.000000;1.025971;0.898305
-2.634299994;-4.883999825;12.013299942;589.000000;0.303866;0.771186
-1.926699996;-4.770999908;12.367500305;589.000000;0.560302;0.860169
-1.974900007;-4.492700100;12.776399612;589.000000;0.792386;0.915254
-2.809099913;-4.139500141;12.356300354;589.000000;0.837701;0.847458
-3.130599976;-3.817600012;12.541299820;589.000000;0.989317;0.889831
-3.459399939;-4.247799873;12.211600304;589.000000;0.489970;0.817797
-1.998299956;-5.037000179;12.146499634;589.000000;0.271786;0.800847
-2.213099957;-5.059000015;12.380100250;589.000000;0.303866;0.788136
-3.138000011;-3.908400059;12.490400314;589.000000;0.989317;0.843220
-2.046099901;-5.017600060;12.339200020;589.000000;0.407679;0.800847
-1.928300023;-4.777500153;12.169799805;589.000000;0.489970;0.788136
-2.064399958;-4.603300095;12.396599770;589.000000;0.665738;0.851695
-3.432600021;-4.372499943;12.288399696;589.000000;0.489970;0.838983
-2.776900053;-3.977400064;12.412699699;589.000000;0.970471;0.860169
-3.717099905;-4.322500229;12.411899567;589.000000;0.407679;0.851695
-2.691800117;-3.945699930;12.176600456;589.000000;0.951252;0.843220
-2.026599884;-4.898499966;12.681400299;589.000000;0.607733;0.838983
-1.922199965;-4.693900108;12.447999954;589.000000;0.706121;0.817797
-3.119899988;-4.094600201;12.109900475;589.000000;0.880688;0.843220
-2.098700047;-4.493700027;12.504400253;589.000000;0.592344;0.868644
-2.124599934;-4.847199917;12.236000061;589.000000;0.332869;0.758475
-1.776399970;-5.277299881;11.849499702;589.000000;0.576546;0.766949
-2.778000116;-4.230100155;12.218700409;589.000000;0.692922;0.830508
-2.914999962;-3.997400045;11.997900009;589.000000;1.025971;0.822034
-1.964400053;-4.656499863;12.270700455;589.000000;0.508466;0.758475
-1.865900040;-5.208099842;11.974599838;589.000000;0.429732;0.788136
-1.833299994;-4.860700130;12.309399605;589.000000;0.508466;0.847458
-1.911499977;-5.194200039;12.261599541;589.000000;0.450707;0.813559
-1.812199950;-5.092899799;12.146499634;589.000000;0.407679;0.788136
-3.522200108;-4.505700111;13.084099770;589.000000;0.303866;0.911017
-2.187700033;-4.841000080;11.988300323;589.000000;0.303866;0.796610
-1.812800050;-5.309000015;13.090399742;589.000000;0.911599;0.838983
-2.137700081;-4.889900208;12.367400169;589.000000;0.407679;0.813559
-2.103699923;-4.652800083;12.203200340;589.000000;0.450707;0.826271
-2.610100031;-4.081299782;12.214799881;589.000000;0.826606;0.851695
-2.871000051;-4.633999825;12.217300415;589.000000;0.303866;0.775424
-3.575700045;-4.370100021;12.710900307;589.000000;0.508466;0.860169
-2.195499897;-4.548299789;12.225799561;589.000000;0.576546;0.800847
-2.411600113;-4.818999767;11.726200104;589.000000;0.384364;0.779661
-2.716700077;-4.122000217;12.390999794;589.000000;0.826606;0.872881
-1.934900045;-5.098299980;12.224399567;589.000000;0.429732;0.779661
-2.868900061;-3.876800060;12.484199524;589.000000;1.128813;0.864407
-2.765599966;-3.871200085;12.474300385;589.000000;1.128813;0.885593
-2.173300028;-4.721399784;12.118599892;589.000000;0.429732;0.783898
-2.971199989;-3.889699936;12.117099762;589.000000;1.043815;0.851695
-2.335500002;-4.786399841;12.118100166;589.000000;0.271786;0.775424
-1.850999951;-5.028999805;12.384099960;589.000000;0.508466;0.838983
-3.041599989;-4.045700073;12.056300163;589.000000;0.951252;0.809322
-1.785799980;-5.225999832;12.048700333;589.000000;0.560302;0.788136
-2.914700031;-4.119400024;12.255499840;589.000000;0.859464;0.830508
-2.048599958;-4.455299854;12.623000145;589.000000;0.815359;0.872881
-2.870500088;-4.094999790;11.959300041;589.000000;0.870141;0.838983
-2.805000067;-4.464000225;12.551899910;589.000000;0.622741;0.864407
-2.181499958;-4.648799896;12.741499901;589.000000;0.637395;0.894068
-2.436399937;-4.852099895;12.079600334;589.000000;0.271786;0.783898
-2.816999912;-4.693200111;12.509200096;589.000000;0.407679;0.855932
-2.859899998;-3.922600031;12.385399818;589.000000;1.104001;0.830508
-1.948099971;-4.531300068;12.687999725;589.000000;0.731807;0.915254
-1.939499974;-4.527699947;12.460100174;589.000000;0.792386;0.877119
-3.202899933;-3.878499985;12.331399918;589.000000;0.826606;0.860169
-3.205899954;-4.551700115;12.433400154;589.000000;0.576546;0.830508
-2.282900095;-4.490300179;12.370800018;589.000000;0.489970;0.834746
-2.754600048;-4.022699833;12.590499878;589.000000;0.998606;0.940678
-2.849400043;-4.034699917;12.465499878;589.000000;0.998606;0.902542
-2.950000048;-4.039299965;12.435600281;589.000000;0.998606;0.826271
-2.293200016;-4.716199875;11.935199738;589.000000;0.407679;0.762712
-1.924000025;-4.577300072;12.331500053;589.000000;0.731807;0.830508
-2.365600109;-4.855599880;11.819600105;589.000000;0.303866;0.817797
-2.989599943;-3.959300041;12.217399597;589.000000;0.989317;0.796610
-3.101599932;-4.674399853;12.403300285;589.000000;0.508466;0.855932
-2.107599974;-4.906099796;12.138400078;589.000000;0.192182;0.766949
-3.500099897;-4.388199806;12.598299980;589.000000;0.560302;0.881356
-3.110599995;-3.825200081;12.329899788;589.000000;0.960909;0.881356
-1.867599964;-4.696000099;12.208000183;589.000000;0.592344;0.826271
-2.819400072;-4.069699764;12.269100189;589.000000;0.960909;0.843220
-2.118299961;-4.941299915;12.274100304;589.000000;0.235374;0.822034
-2.470299959;-4.745600224;11.859399796;589.000000;0.429732;0.733051
-3.513900042;-4.174799919;12.409199715;589.000000;0.576546;0.843220
-2.756700039;-4.756199837;12.566800117;589.000000;0.332869;0.847458
-2.768100023;-4.615699768;12.583600044;589.000000;0.508466;0.847458
-3.012500048;-4.079800129;11.966199875;589.000000;0.901413;0.830508
-3.209899902;-4.546400070;12.679900169;589.000000;0.665738;0.864407
-3.264499903;-3.697000027;12.557399750;589.000000;0.837701;0.894068
-3.348200083;-6.617499828;10.380399704;589.000000;0.303866;0.860169
-3.478199959;-6.458700180;9.113400459;589.000000;0.429732;0.885593
-3.678800106;-6.630700111;9.087499619;589.000000;0.384364;0.889831
-3.710400105;-6.408599854;8.997799873;589.000000;0.508466;0.872881
-3.669699907;-6.654699802;8.902099609;589.000000;0.303866;0.889831
-3.489300013;-6.742599964;9.038299561;589.000000;0.192182;0.889831
-3.822099924;-6.444600105;9.022500038;589.000000;0.508466;0.868644
-3.634999990;-5.956600189;10.721699715;589.000000;0.407679;0.889831
-3.439199924;-6.383800030;8.992600441;589.000000;0.560302;0.877119
-3.590899944;-5.820400238;10.564700127;589.000000;0.543572;0.864407
-3.579799891;-6.656799793;8.986200333;589.000000;0.332869;0.889831
-3.602400064;-5.777299881;10.806699753;589.000000;0.470748;0.889831
-3.626100063;-5.734200001;10.716899872;589.000000;0.470748;0.860169
-3.421999931;-5.506100178;10.996100426;589.000000;0.332869;0.834746
-3.498899937;-6.785600185;8.936300278;589.000000;0.192182;0.898305
-3.396199942;-6.561500072;10.506899834;589.000000;0.192182;0.911017
-5.751999855;-7.775199890;13.030599594;589.000000;0.271786;0.894068
-4.930600166;-6.443399906;13.164799690;589.000000;0.450707;0.847458
-6.353300095;-6.456699848;10.865099907;589.000000;0.560302;0.898305
-6.065999985;-6.530000210;10.865500450;589.000000;0.429732;0.902542
-5.677899837;-6.140799999;13.046999931;589.000000;0.192182;0.927966
-5.036399841;-6.398700237;13.028499603;589.000000;0.303866;0.826271
-6.392000198;-6.562300205;10.857799530;589.000000;0.508466;0.902542
-5.019899845;-6.282499790;13.047599792;589.000000;0.271786;0.813559
-7.576600075;-6.984899998;11.880299568;589.000000;0.706121;0.889831
-6.031499863;-5.645599842;11.001500130;589.000000;0.192182;0.809322
-5.581099987;-6.236999989;13.012000084;589.000000;0.192182;0.877119
-5.066699982;-6.320300102;12.873000145;589.000000;0.271786;0.855932
-7.460100174;-6.763199806;11.933799744;589.000000;0.826606;0.919492
-6.364900112;-6.344600201;10.928299904;589.000000;0.560302;0.911017
-5.674600124;-8.033399582;12.847800255;589.000000;0.332869;0.868644
-7.604100227;-7.124599934;12.029299736;589.000000;0.826606;0.923729
-7.584300041;-7.154500008;11.758099556;589.000000;0.560302;0.902542
-7.471899986;-6.974100113;11.770299911;589.000000;0.692922;0.877119
-7.483799934;-7.181499958;11.888500214;589.000000;0.679466;0.923729
-5.538000107;-7.547100067;12.961600304;589.000000;0.607733;0.885593
-5.701900005;-7.879300117;13.035400391;589.000000;0.407679;0.826271
-6.624100208;-6.660500050;10.820599556;589.000000;0.692922;0.911017
-6.062699795;-5.622799873;10.901700020;589.000000;0.192182;0.830508
-6.075900078;-13.505499840;11.412799835;589.000000;0.731807;0.847458
-6.072800159;-13.678700447;11.449799538;589.000000;0.731807;0.881356
-6.080399990;-13.499799728;12.167599678;589.000000;1.095605;0.957627
-6.154099941;-13.786399841;11.442600250;589.000000;0.744317;0.894068
-5.826200008;-13.382499695;11.336500168;589.000000;0.429732;0.851695
-5.935400009;-13.604499817;11.393699646;589.000000;0.607733;0.822034
-6.018899918;-13.502699852;11.505000114;589.000000;0.780647;0.868644
-6.226500034;-13.562999725;11.433300018;589.000000;0.859464;0.881356
-6.054999828;-13.722999573;11.761599541;589.000000;0.870141;0.911017
-6.149300098;-13.497900009;11.551500320;589.000000;0.780647;0.906780
-6.001999855;-13.745400429;11.424799919;589.000000;0.622741;0.834746
-6.067399979;-13.819199562;11.731300354;589.000000;0.880688;0.902542
-5.870999813;-13.542599678;11.447699547;589.000000;0.489970;0.817797
-5.896299839;-13.484800339;11.255999565;589.000000;0.560302;0.826271
-6.201399803;-13.725700378;11.598299980;589.000000;0.911599;0.864407
-5.960000038;-13.534000397;11.947299957;589.000000;0.911599;0.936441
-5.909900188;-13.441300392;11.395600319;589.000000;0.576546;0.838983
-6.004199982;-13.579400063;11.632300377;589.000000;0.665738;0.872881
-5.922999859;-13.569000244;11.806500435;589.000000;0.815359;0.919492
-6.060299873;-13.731699944;12.067799568;589.000000;1.176869;0.978814
-6.053500175;-13.672599792;11.958499908;589.000000;1.043815;0.932203
-6.161600113;-13.815299988;11.558600426;589.000000;0.921672;0.911017
-6.123499870;-13.901399612;11.437700272;589.000000;0.780647;0.885593
-5.996099949;-13.636300087;11.840999603;589.000000;0.870141;0.906780
-5.975800037;-13.452099800;12.176899910;589.000000;1.104001;0.987288
-6.075200081;-13.457699776;11.660699844;589.000000;0.837701;0.902542
-5.947599888;-13.576999664;11.545000076;589.000000;0.665738;0.860169
-6.186200142;-13.997900009;11.480199814;589.000000;0.901413;0.881356
-6.110700130;-13.594200134;11.615799904;589.000000;0.792386;0.889831
-6.042500019;-13.745699883;11.527299881;589.000000;0.803955;0.860169
-5.897900105;-13.479000092;11.133700371;589.000000;0.543572;0.877119
-6.015600204;-13.492899895;11.329999924;589.000000;0.560302;0.822034
-5.891200066;-13.375100136;11.877699852;589.000000;0.780647;0.919492
