//X;Y;Z;R;G;B;Illuminance (PCV)
13.347080231;-0.079424858;12.524050713;138;141;174;1
13.473236084;-0.063078403;12.369112015;124;129;158;1
13.603437424;-0.045139309;12.420364380;96;95;113;1
13.560956955;0.028223990;12.364438057;160;166;192;1
13.553788185;-0.140638828;12.460978508;124;130;156;1
13.602495193;-0.000815390;12.536593437;81;81;79;1
13.445183754;0.053127289;12.289754868;169;176;205;1
13.628238678;0.580385208;12.214919090;170;181;213;1
13.662612915;0.864497185;12.188979149;86;86;78;1
13.657388687;0.712221622;12.321683884;159;169;204;1
13.060585022;-0.197497845;12.850962639;95;87;111;1
13.304973602;0.012444500;12.604652405;90;90;118;1
13.358663559;0.012487410;12.703367233;114;114;142;1
13.135925293;-0.112186909;12.843691826;195;198;233;1
13.360591888;-0.242589951;12.790922165;57;52;59;1
13.268653870;-0.122162819;12.783653259;100;100;126;1
13.357339859;-0.035804749;12.822432518;106;106;132;1
13.439842224;-0.131093025;12.676914215;193;198;230;1
13.439516068;0.070754051;12.718337059;132;138;164;1
13.466516495;0.161250114;12.866301537;117;123;155;1
13.663408279;0.071897507;12.865306854;184;190;216;1
13.570079803;0.121566772;12.866236687;49;35;52;1
13.191540718;-0.199709892;12.985430717;174;168;194;1
13.209747314;-0.087393276;12.979873657;111;107;144;1
13.306406021;-0.044229981;12.953759193;186;190;217;1
13.250587463;-0.186245918;13.067271233;97;102;134;1
13.627809525;-0.109067917;12.963974953;91;82;99;1
13.431890488;-0.053796291;12.941016197;183;188;218;1
13.512784958;0.113715172;12.979807854;58;63;43;1
13.664300919;0.154566765;12.943308830;68;64;55;1
13.438183784;0.265100002;12.968010902;210;218;241;1
13.571620941;0.231826782;12.881442070;89;77;79;1
13.538167953;0.212341785;13.000249863;159;165;197;1
13.475711823;0.127498627;13.076458931;156;161;183;1
13.577916145;0.089438923;13.055436134;192;199;227;1
13.533298492;0.376152039;12.921968460;108;110;131;1
13.809221268;-0.749009132;10.967582703;199;195;222;1
14.237892151;-0.260973930;11.058744431;13;12;8;1
14.210807800;-0.258085251;11.329715729;45;51;51;1
14.298828125;-0.269555569;11.223442078;12;19;12;1
14.037815094;-1.104907990;11.565617561;146;154;173;1
13.948081017;-1.146900177;11.948577881;145;154;171;1
13.674982071;-0.430541039;11.450970650;109;106;127;1
13.745261192;-0.301495552;11.538977623;122;141;173;1
14.257494926;-0.340631485;11.488547325;129;148;181;1
14.251967430;-0.492440224;11.773771286;84;93;102;1
14.205094337;-0.495787621;11.883161545;64;67;86;1
14.103239059;-0.337935448;11.894045830;74;79;101;1
14.315154076;-0.418374062;11.384979248;8;11;2;1
14.304758072;-0.484369278;11.510892868;55;56;51;1
14.373551369;-0.370466232;11.464200020;25;33;36;1
14.339916229;-0.273843288;11.499149323;33;34;65;1
14.334424973;-0.425332069;11.589991570;63;72;87;1
14.468484879;-0.464668274;11.652388573;103;114;132;1
14.402199745;-0.331055641;11.554160118;70;78;91;1
14.332143784;-0.265193939;11.637419701;140;141;169;1
14.431446075;-0.566265106;11.783690453;78;79;100;1
14.545066833;-0.742588043;11.876232147;19;18;16;1
14.413856506;-0.631546974;11.913945198;86;90;99;1
14.302522659;-0.593194962;11.965549469;119;127;146;1
14.491048813;-0.573788643;11.865587234;57;68;88;1
14.551903725;-0.562044621;11.958038330;92;91;123;1
14.634155273;-0.738919258;11.968757629;70;73;82;1
14.593690872;-0.634247780;11.872944832;77;83;69;1
14.337489128;-0.535832405;11.739995003;69;68;102;1
14.400127411;-0.412122726;11.746512413;92;99;115;1
14.514657974;-0.465800285;11.744256020;39;38;46;1
14.306878090;-0.296867371;11.808982849;86;101;106;1
14.447736740;-0.354415894;11.680084229;90;98;111;1
14.456201553;-0.355331421;11.810569763;74;76;88;1
14.410557747;-0.513629913;11.884400368;92;86;100;1
14.414604187;-0.334410667;11.927436829;92;93;113;1
14.317107201;-0.281672955;11.956837654;25;16;17;1
14.523040771;-0.286213398;11.930065155;56;62;88;1
14.616724968;-0.425529480;11.693830490;54;60;72;1
13.851749420;0.017690660;10.863565445;158;154;179;1
13.820636749;-0.002303600;10.993351936;74;70;93;1
14.176479340;-0.243680954;10.923643112;11;13;12;1
14.130941391;-0.204145432;11.044286728;183;181;205;1
13.729259491;0.153601646;10.846775055;221;226;248;1
13.791730881;0.244917870;10.891800880;140;138;152;1
13.813333511;0.125879288;11.065884590;204;185;213;1
13.883097649;0.190845966;10.985218048;149;158;201;1
13.721063614;0.315544128;10.955080986;139;137;159;1
13.732296944;0.215587139;11.070341110;90;87;104;1
13.837519646;0.245752335;11.069799423;91;87;86;1
14.076709747;0.218779564;10.921188354;57;55;69;1
13.793182373;-0.109256737;11.183931351;120;126;142;1
13.850601196;-0.059121609;11.116478920;169;173;200;1
13.870809555;-0.054734230;11.221388817;76;70;80;1
13.963976860;-0.089628696;11.149964333;56;60;85;1
13.810525894;-0.151361465;11.279129028;81;78;89;1
13.707595825;-0.159999847;11.305262566;112;97;100;1
13.945199966;-0.111934192;11.285995483;135;156;185;1
13.868087769;-0.162346840;11.368980408;140;153;187;1
13.724307060;-0.071614742;11.261260986;57;51;63;1
13.801443100;-0.018054491;11.298149109;39;40;58;1
13.864171982;-0.053801540;11.367563248;68;68;68;1
13.966226578;-0.039093971;11.363449097;42;38;26;1
14.095688820;-0.114964962;11.101751328;79;85;107;1
14.111432076;-0.129483700;11.199489594;66;72;94;1
14.202111244;-0.220471859;11.145974159;54;60;86;1
14.198725700;-0.111981392;11.144401550;67;74;90;1
14.262382507;-0.060880180;11.223399162;73;72;80;1
14.179384232;-0.111526012;11.272081375;34;33;39;1
14.261922836;-0.165516376;11.308196068;141;147;173;1
14.113398552;-0.032320980;11.353863716;46;41;48;1
14.231683731;-0.037981991;11.370433807;53;51;75;1
13.708732605;0.338868141;11.079503059;69;65;82;1
13.807748795;0.202523232;11.217123032;65;59;69;1
13.903467178;0.244683266;11.179710388;76;70;74;1
13.840476990;0.329823494;11.195483208;112;102;126;1
13.815681458;0.142627716;11.322189331;124;146;167;1
13.846531868;0.052697659;11.230639458;92;99;107;1
13.940248489;0.064043522;11.368041039;202;212;248;1
13.904527664;0.188076019;11.350012779;75;71;96;1
13.737527847;0.220530510;11.372633934;195;191;218;1
13.961771965;0.217564106;11.256587029;162;162;200;1
13.885187149;0.284980774;11.283391953;181;180;211;1
14.141180038;0.110941887;11.135637283;201;211;247;1
14.057779312;0.269634724;11.108203888;144;149;187;1
14.107267380;0.322371960;11.207444191;134;133;164;1
14.176690102;0.187430859;11.284661293;13;11;14;1
14.252635002;0.120926857;11.337843895;61;68;76;1
14.061576843;0.264961243;11.364937782;159;165;199;1
14.554950714;0.089481831;10.870306969;54;49;46;1
14.413611412;0.252126217;10.843995094;63;57;71;1
14.353242874;0.324305534;10.904306412;13;13;13;1
14.541555405;0.227556229;10.847809792;70;69;77;1
14.498110771;0.316616535;10.789871216;88;84;99;1
14.305606842;0.152893066;11.009251595;196;200;235;1
14.563137054;0.148131847;10.970152855;31;39;15;1
14.328690529;0.241832733;10.956700325;23;17;5;1
14.367428780;0.218474388;11.059266090;14;8;8;1
14.558176041;0.247812748;10.948655128;27;17;25;1
14.668228149;0.123075493;10.992859840;31;32;36;1
14.336508751;-0.164837837;11.209099770;79;86;102;1
14.306657791;-0.240829468;11.363211632;125;132;161;1
14.412491798;-0.183124542;11.365924835;90;96;122;1
14.327116013;-0.121498577;11.371171951;15;13;14;1
14.328565598;0.020870689;11.346916199;12;12;14;1
14.564714432;-0.037002560;11.338021278;144;150;184;1
14.632644653;-0.153452873;11.286297798;33;36;53;1
14.750735283;-0.109377377;11.293256760;97;104;122;1
14.667670250;-0.049657822;11.273725510;46;45;59;1
14.702532768;-0.069093227;11.371113777;76;78;90;1
14.309812546;0.187331676;11.200011253;12;12;14;1
14.415095329;0.190102100;11.175831795;66;61;67;1
14.350252151;0.336643696;11.099355698;66;61;83;1
14.334557533;0.326782703;11.215439796;46;48;60;1
14.399270058;0.110562317;11.281563759;25;22;15;1
14.476922989;0.104934692;11.345926285;126;132;164;1
14.329414368;0.247642040;11.297928810;104;107;138;1
14.413052559;0.208431721;11.370676041;17;17;17;1
14.403447151;0.320567131;11.311567307;45;42;61;1
14.471820831;0.224249840;11.266531944;84;87;104;1
14.524415970;0.264574528;11.347181320;69;73;84;1
14.651283264;0.151141644;11.223509789;27;30;23;1
14.696140289;0.077987671;11.323885918;59;66;85;1
14.656589508;0.184164524;11.356785774;194;198;233;1
14.609378815;0.331453323;11.334816933;21;20;26;1
14.713541985;0.336187363;11.354690552;14;15;17;1
13.755483627;0.376955032;10.875429153;164;155;176;1
13.770709991;0.405106544;10.989874840;74;54;66;1
14.060567856;0.499426842;10.882196426;101;95;95;1
14.261198997;0.638015747;10.811747551;87;74;83;1
14.110923767;0.484017849;10.968297958;94;92;95;1
14.178653717;0.359265804;11.066336632;165;168;201;1
14.083038330;0.626826286;11.059775352;75;82;126;1
14.256021500;0.607514381;11.059957504;112;117;155;1
13.962170601;0.775326729;10.908685684;208;207;238;1
13.911984444;0.788088322;11.072057724;107;96;90;1
13.765244484;0.824716568;10.942072868;120;123;156;1
14.240591049;0.744733334;10.810400009;105;93;93;1
14.149667740;0.656939507;10.883117676;89;98;139;1
14.257888794;0.698217869;10.898156166;63;46;54;1
14.264055252;0.799208641;10.899942398;112;95;111;1
14.025918961;0.739713192;10.997765541;107;100;131;1
14.093830109;0.773700714;10.927523613;184;179;209;1
14.152410507;0.668747902;10.987698555;91;99;135;1
14.244873047;0.716641426;10.998492241;102;97;93;1
14.135367393;0.757627964;11.054487228;130;136;170;1
14.008659363;0.820086002;11.064129829;82;80;85;1
14.107349396;0.854561329;11.071624756;107;105;129;1
13.801774979;0.373909950;11.113042831;86;84;97;1
13.747060776;0.402876854;11.323174477;93;86;127;1
13.914707184;0.370888710;11.371098518;77;75;80;1
14.144358635;0.443216324;11.185323715;75;63;73;1
14.076868057;0.618941784;11.218672752;154;162;199;1
14.159215927;0.609858513;11.145637512;81;85;122;1
13.830872536;0.828332901;11.132823944;88;79;74;1
14.025689125;0.704147816;11.103568077;153;160;206;1
14.264653206;0.645823002;11.154788971;145;144;175;1
14.088813782;0.936065197;11.131795883;183;182;213;1
14.267851830;0.409348488;10.887052536;93;97;132;1
14.345797539;0.597987175;10.849845886;78;69;74;1
14.319045067;0.600095749;10.955991745;89;73;86;1
14.317150116;0.877164841;10.825221062;154;145;174;1
14.448575974;0.901292801;10.816132545;132;107;102;1
14.331223488;0.858351231;10.953619957;138;124;157;1
14.321963310;0.838423729;11.065944672;98;89;118;1
14.410192490;0.574494839;11.142708778;95;89;103;1
14.287298203;0.747129440;11.117195129;119;118;114;1
14.309020996;0.784221172;11.215301514;128;124;125;1
14.386629105;0.876016617;11.139489174;82;66;66;1
14.318994522;0.748805046;11.316219330;94;84;82;1
14.499115944;0.876378059;11.333520889;188;168;159;1
13.947500229;-0.212118626;11.473896027;88;90;111;1
13.889102936;-0.111216553;11.475208282;45;45;57;1
13.759574890;-0.061821941;11.378816605;134;143;160;1
13.814512253;0.020884041;11.434584618;97;102;98;1
13.787597656;-0.056318279;11.503948212;11;11;11;1
13.961751938;-0.033876419;11.485008240;11;11;9;1
13.837478638;-0.141211510;11.584201813;61;54;62;1
13.960084915;-0.123270512;11.569126129;96;102;126;1
13.778786659;0.030082701;11.581224442;106;107;125;1
13.857983589;-0.041243080;11.578145981;11;9;12;1
13.928736687;-0.074242122;11.671079636;14;16;11;1
13.963390350;0.009131430;11.621098518;225;228;247;1
14.082439423;-0.127335548;11.392170906;102;101;132;1
14.204137802;-0.192080498;11.438570976;14;15;10;1
14.054091454;0.040573120;11.401007652;14;14;12;1
14.059278488;-0.006301400;11.493078232;28;27;32;1
14.155683517;-0.027651791;11.444720268;25;23;28;1
14.239988327;0.041100029;11.483056068;15;18;11;1
14.183592796;-0.191260338;11.555001259;14;15;17;1
14.067447662;-0.008548740;11.666980743;15;13;14;1
13.735992432;0.131531715;11.455821991;98;103;123;1
13.692119598;0.311147213;11.416705132;154;162;199;1
13.801456451;0.333802223;11.377543449;129;122;163;1
13.754709244;0.260014057;11.513999939;96;85;99;1
13.764013290;0.259498596;11.640437126;120;137;119;1
14.114286423;0.145367622;11.506981850;24;23;41;1
14.188749313;0.217546463;11.477367401;20;23;32;1
14.253555298;0.233239174;11.556386948;14;11;20;1
13.954598427;-0.170331001;11.808882713;61;65;76;1
13.787118912;-0.040891171;11.775656700;104;103;108;1
13.869529724;-0.002556320;11.721883774;90;98;109;1
13.910062790;-0.079943180;11.784269333;155;161;197;1
13.925389290;0.035015579;11.811535835;143;149;175;1
13.776684761;-0.194736958;11.967144012;117;110;118;1
13.814336777;-0.094731331;11.896223068;48;49;70;1
13.943347931;0.029096130;11.927206039;90;91;121;1
14.032961845;-0.188828945;11.742690086;20;22;11;1
14.132072449;-0.146836281;11.739861488;50;52;65;1
14.264172554;-0.149203300;11.814452171;27;28;22;1
13.986330032;0.018199921;11.726944923;143;149;175;1
14.077589989;-0.045099739;11.766435623;27;24;31;1
14.105437279;0.036070351;11.821462631;14;19;13;1
14.251974106;-0.061174870;11.709572792;60;73;89;1
14.242530823;-0.036753651;11.812062263;42;44;65;1
14.074214935;-0.244758606;11.846718788;48;53;73;1
14.062682152;-0.130174160;11.825078011;26;26;36;1
14.153142929;-0.189449787;11.954859734;48;47;65;1
14.198021889;-0.107764237;11.898423195;32;29;56;1
14.019896507;-0.012035850;11.849186897;50;48;70;1
14.194859505;0.039044380;11.881075859;15;15;15;1
14.070857048;0.096129417;11.729653358;43;45;68;1
14.297348976;-0.183579922;11.477712631;15;13;16;1
14.389098167;-0.175660133;11.521879196;13;10;17;1
14.561785698;-0.140691757;11.510591507;105;106;127;1
14.378034592;-0.043960091;11.427627563;13;20;28;1
14.557109833;0.040050030;11.418032646;15;15;25;1
14.448408127;0.039101120;11.457716942;101;105;134;1
14.474662781;-0.145394325;11.571752548;66;75;82;1
14.633375168;-0.234128475;11.485010147;81;86;106;1
14.631189346;-0.059964661;11.443182945;76;84;95;1
14.710075378;0.002893450;11.446377754;61;59;81;1
14.753691673;-0.072576053;11.557540894;65;73;92;1
14.334494591;0.114489079;11.471001625;20;20;32;1
14.561393738;0.151434422;11.418674469;14;12;13;1
14.489727020;0.131969929;11.501933098;14;12;17;1
14.647014618;0.093232147;11.446600914;52;50;55;1
14.638401031;0.170540333;11.516885757;37;37;37;1
14.747472763;0.166129589;11.475176811;17;23;21;1
14.598455429;0.245441914;11.424070358;71;71;95;1
14.681093216;0.261820316;11.493528366;44;51;59;1
14.372469902;-0.176206112;11.728907585;101;106;126;1
14.375108719;0.030556200;11.816974640;123;128;158;1
14.336121559;-0.217192650;11.863190651;48;44;59;1
14.268100739;-0.188067913;11.931891441;25;22;33;1
14.414603233;-0.114240170;11.936667442;22;32;44;1
14.462875366;-0.191584110;11.859789848;34;34;46;1
14.480968475;-0.193872452;11.971189499;45;56;42;1
14.334676743;-0.056377891;11.886408806;12;17;10;1
14.331210136;0.037312981;11.925419807;14;18;21;1
14.509225845;-0.072768688;11.913909912;15;13;16;1
14.547298431;0.040646549;11.898194313;37;50;40;1
14.706848145;-0.030508040;11.966122627;27;25;36;1
14.410639763;0.293840408;11.785936356;91;90;85;1
14.447380066;0.051857948;11.899052620;69;79;89;1
14.446680069;0.293479443;11.891528130;55;49;63;1
13.741537094;0.422369003;11.422063828;97;99;122;1
13.722602844;0.396588326;11.522924423;58;63;56;1
13.839086533;0.458136559;11.389615059;139;147;160;1
13.798315048;0.632442474;11.514966011;72;68;93;1
13.843040466;0.394650459;11.552392006;153;155;196;1
13.706981659;0.506619453;11.566201210;129;126;143;1
13.769588470;0.728955746;11.475150108;94;94;92;1
13.739915848;0.718445778;11.577132225;93;89;78;1
13.844196320;0.775559902;11.591837883;104;110;122;1
14.049505234;0.706361771;11.623012543;82;83;104;1
14.068487167;0.897548676;11.625830650;69;65;80;1
14.157459259;0.866270065;11.565518379;176;188;204;1
14.241939545;0.471461773;11.796404839;92;90;101;1
14.251999855;0.604050159;11.685439110;108;110;107;1
14.197892189;0.371533871;11.841814041;113;114;135;1
14.133127213;0.379230022;11.949633598;84;90;114;1
14.186321259;0.573170662;11.930316925;107;106;124;1
14.076625824;0.686872959;11.728199005;44;49;71;1
14.252734184;0.825054169;11.708432198;95;96;90;1
14.548572540;0.363881588;11.444458961;15;16;11;1
14.656260490;0.362780571;11.432322502;13;15;14;1
14.596963882;0.457417488;11.424496651;76;77;98;1
14.617741585;0.519187450;11.505550385;88;89;84;1
14.345678329;0.786238670;11.411369324;104;92;94;1
14.290712357;0.713909149;11.482183456;94;93;125;1
14.375366211;0.787860394;11.517295837;101;77;77;1
14.275329590;0.689732552;11.635582924;100;98;99;1
14.398897171;0.698820114;11.641473770;98;95;126;1
14.434219360;0.817690849;11.666554451;83;71;83;1
14.318586349;0.351993561;11.803160667;57;57;81;1
14.363857269;0.590867519;11.722584724;125;130;160;1
14.316427231;0.448566914;11.871719360;121;117;131;1
14.285552979;0.633342266;11.922740936;108;113;132;1
14.467275620;0.886274815;11.745282173;77;72;69;1
14.384052277;0.694966316;11.844269753;85;76;77;1
14.521635056;0.879627228;11.845835686;89;87;88;1
15.492946625;0.010934830;11.934632301;106;89;81;1
14.927856445;0.766044617;11.597871780;112;97;100;1
15.011362076;0.764194012;11.668828964;77;75;76;1
15.001907349;0.742205143;11.907011986;142;143;173;1
14.970656395;0.826041222;11.958850861;94;102;115;1
14.043783188;-1.164332390;12.245646477;203;208;237;1
13.943990707;-1.108789444;12.045363426;208;214;240;1
13.966186523;-0.863503456;12.055379868;73;58;91;1
13.913770676;-1.006651878;12.228725433;78;58;93;1
13.901371002;-0.904885292;12.124371529;82;56;85;1
13.937167168;-0.906278610;12.221719742;129;137;156;1
14.022264481;-0.988996506;11.975143433;204;202;224;1
14.088565826;-1.082202911;12.144752502;194;198;225;1
14.036672592;-0.908288002;12.247678757;99;105;121;1
14.159281731;-0.907107353;12.194916725;61;57;74;1
13.923711777;-1.231780529;12.427133560;143;142;173;1
14.026062012;-1.342542171;12.377546310;209;208;239;1
14.011613846;-1.243154526;12.481260300;80;62;76;1
13.970354080;-1.284886360;12.566121101;178;176;197;1
13.736903191;-0.923162460;12.308934212;21;25;50;1
13.909235001;-0.874415874;12.341558456;192;201;230;1
13.832981110;-1.027653694;12.433936119;227;227;253;1
13.864044189;-1.089460373;12.568656921;133;127;161;1
13.768524170;-0.868330956;12.493909836;165;159;185;1
13.806762695;-0.941480160;12.554426193;90;94;129;1
13.872186661;-0.861283302;12.528903008;47;33;46;1
14.112497330;-0.871161461;12.306926727;44;46;61;1
14.096458435;-0.881744385;12.414861679;71;65;65;1
14.008388519;-0.921990871;12.548254967;199;202;237;1
14.131692886;-0.983229637;12.473596573;59;56;47;1
13.741685867;-0.650583267;12.039955139;52;43;70;1
13.813608170;-0.632658958;12.115030289;66;54;64;1
13.792855263;-0.708696842;12.180184364;111;101;128;1
13.757208824;-0.557021141;12.198462486;68;79;85;1
13.949592590;-0.584608078;12.139794350;68;64;55;1
13.881803513;-0.573399544;12.239551544;58;51;45;1
14.262541771;-0.639600754;12.106737137;42;34;47;1
14.133711815;-0.787087440;12.165052414;112;123;141;1
14.256612778;-0.707427979;12.256643295;62;62;70;1
14.187454224;-0.652132034;12.193378448;22;17;21;1
13.722038269;-0.555738449;12.088129997;136;137;168;1
13.740558624;-0.305682182;12.103248596;16;14;15;1
13.964387894;-0.263191700;12.022628784;67;73;89;1
13.838912964;-0.345147133;12.101911545;104;134;142;1
13.909374237;-0.479739189;12.189806938;57;55;60;1
13.815700531;-0.268022060;12.195346832;122;125;134;1
13.713354111;-0.292075157;12.205122948;78;79;73;1
14.182890892;-0.433650017;12.021854401;90;104;115;1
14.097778320;-0.302935600;11.988907814;29;27;48;1
14.136693954;-0.261804104;12.118148804;80;90;92;1
14.088951111;-0.448272705;12.245883942;30;25;31;1
14.042519569;-0.358220100;12.228949547;126;126;162;1
13.772396088;-0.829970837;12.298718452;162;165;200;1
13.775247574;-0.725189209;12.280787468;72;64;101;1
13.786120415;-0.830591202;12.397827148;164;158;194;1
13.779370308;-0.717010498;12.397114754;99;101;126;1
13.877656937;-0.744503975;12.417258263;158;160;173;1
13.708393097;-0.639745712;12.307427406;104;108;135;1
13.685672760;-0.559908867;12.383050919;58;42;45;1
13.958040237;-0.667364120;12.402933121;61;50;54;1
13.703546524;-0.762794971;12.473107338;135;139;176;1
13.816504478;-0.731762886;12.552397728;112;119;137;1
13.963669777;-0.708277702;12.557994843;96;100;125;1
13.904619217;-0.637336731;12.488609314;63;60;55;1
14.176558495;-0.815157890;12.409784317;80;83;98;1
14.092364311;-0.688691139;12.404919624;97;97;125;1
14.024794579;-0.559479713;12.362928391;36;29;36;1
14.178018570;-0.636837959;12.294914246;72;74;99;1
14.132533073;-0.573993683;12.370953560;93;106;123;1
14.264120102;-0.627017975;12.347472191;71;81;93;1
14.099418640;-0.789448738;12.546795845;83;93;103;1
14.220250130;-0.749741554;12.471712112;64;64;90;1
14.259798050;-0.723909378;12.564359665;121;133;159;1
14.113088608;-0.580406666;12.491330147;83;80;109;1
14.263268471;-0.600340843;12.452422142;92;100;123;1
14.134102821;-0.671331406;12.557216644;39;44;64;1
14.207859993;-0.596743584;12.554877281;40;52;68;1
13.957776070;-0.340839386;12.324567795;69;73;82;1
13.716875076;-0.520606995;12.472140312;89;102;110;1
13.754239082;-0.424697876;12.469892502;16;16;16;1
13.789451599;-0.490903854;12.569373131;55;61;75;1
13.852119446;-0.441284180;12.507962227;63;62;80;1
13.910694122;-0.293271065;12.482968330;144;148;160;1
14.079316139;-0.446898460;12.407172203;13;14;16;1
14.154061317;-0.432188988;12.327113152;16;18;13;1
14.237810135;-0.425185204;12.396876335;77;78;83;1
14.155930519;-0.330317497;12.338840485;78;91;107;1
14.031510353;-0.520872116;12.472737312;23;30;23;1
14.096237183;-0.464848518;12.569461823;174;182;219;1
14.166288376;-0.484145164;12.463240623;60;59;90;1
14.040463448;-0.364530563;12.479103088;66;80;91;1
14.242584229;-0.340378761;12.453184128;109;100;117;1
14.200278282;-0.405396461;12.552149773;41;40;46;1
14.233734131;-0.297243118;12.562527657;173;185;201;1
14.412948608;-0.645825863;12.021456718;31;25;61;1
14.545261383;-0.691265106;11.989157677;62;63;57;1
14.489248276;-0.569618225;12.044560432;131;143;167;1
14.346141815;-0.718219280;12.189849854;162;168;200;1
14.329517365;-0.612414360;12.182003021;67;70;87;1
14.423812866;-0.677720070;12.134994507;103;114;134;1
14.524405479;-0.638655663;12.125617981;88;94;118;1
14.592748642;-0.561616898;12.127143860;68;74;90;1
14.610420227;-0.583941460;12.240073204;113;121;140;1
14.797689438;-0.609502792;12.191962242;51;54;45;1
14.411493301;-0.419705391;12.059411049;72;81;98;1
14.499122620;-0.335690498;12.025012970;25;25;49;1
14.548840523;-0.346637726;12.115269661;79;87;110;1
14.366641998;-0.382534027;12.147713661;99;108;123;1
14.411554337;-0.337642670;12.270176888;86;83;110;1
14.470718384;-0.351992130;12.183111191;123;127;164;1
14.645057678;-0.501062393;12.191657066;60;57;76;1
14.620764732;-0.297704697;12.265430450;97;104;132;1
14.277099609;-0.725951195;12.357604980;138;153;184;1
14.546079636;-0.706689835;12.417181015;166;166;194;1
14.546091080;-0.657466888;12.323141098;115;124;139;1
14.350673676;-0.570287704;12.359596252;123;129;163;1
14.489541054;-0.706622124;12.529005051;69;71;86;1
14.378884315;-0.581331253;12.456192017;66;72;88;1
14.339739799;-0.654481411;12.565366745;73;66;73;1
14.473449707;-0.558391571;12.483186722;70;75;97;1
14.557073593;-0.603949547;12.528305054;52;49;66;1
14.776922226;-0.599752426;12.289415359;24;27;18;1
14.599306107;-0.776510239;12.494269371;38;49;35;1
14.593848228;-0.689991951;12.569053650;83;93;103;1
14.543412209;-0.483815193;12.331873894;78;81;100;1
14.369618416;-0.341966629;12.407258987;18;18;28;1
14.528829575;-0.361663818;12.343965530;65;70;90;1
14.506772995;-0.266086578;12.281607628;79;82;99;1
14.279653549;-0.424669266;12.493598938;63;62;60;1
14.315942764;-0.552113533;12.558071136;84;92;115;1
14.374371529;-0.487162590;12.500909805;93;101;120;1
14.555056572;-0.500768661;12.447225571;79;84;103;1
14.509271622;-0.407553673;12.478950500;124;130;156;1
14.459680557;-0.485507965;12.567296982;106;108;133;1
14.676927567;-0.550693512;12.308584213;50;54;63;1
14.851909637;-0.462581635;12.335994720;102;107;126;1
14.616144180;-0.312729836;12.490768433;72;75;106;1
13.927730560;-1.310778618;12.673114777;136;136;162;1
13.777462006;-1.161934376;12.590685844;186;189;220;1
13.808380127;-1.294773102;12.754035950;236;245;252;1
13.777473450;-1.207076073;12.857050896;231;236;255;1
13.853374481;-1.007404804;12.630747795;69;64;84;1
13.955316544;-1.033962250;12.579887390;105;104;138;1
13.812032700;-0.869090557;12.664625168;129;128;160;1
13.812215805;-1.089025497;12.752025604;71;67;100;1
13.928693771;-1.007970810;12.789165497;104;107;124;1
13.739841461;-0.872209072;12.769169807;89;90;136;1
13.851819992;-0.936324596;12.727540970;192;199;228;1
13.832365990;-0.885045052;12.821047783;93;106;123;1
14.144510269;-0.935441971;12.619710922;130;138;175;1
14.085399628;-1.032379150;12.865557671;117;124;152;1
14.020712852;-0.940101624;12.839483261;121;128;157;1
14.168998718;-0.897862434;12.763961792;48;48;74;1
13.779123306;-1.307579041;13.015429497;63;56;63;1
13.763571739;-1.224094391;12.955734253;137;134;165;1
14.171623230;-1.338348389;12.961112022;100;103;112;1
14.064798355;-1.263885498;12.959374428;56;42;67;1
14.059276581;-1.388126373;13.038159370;155;158;193;1
14.242505074;-1.410056114;13.128138542;140;151;181;1
13.885517120;-1.019667149;12.894842148;190;195;225;1
13.749166489;-0.913172245;12.966001511;169;173;210;1
13.950620651;-0.910286903;12.917767525;150;154;192;1
13.705472946;-1.027368546;13.159131050;139;146;165;1
13.785324097;-0.858154774;13.047936440;125;131;153;1
13.687098503;-0.893168449;13.160593987;116;110;136;1
13.963836670;-0.894670486;13.059570313;71;83;99;1
14.085067749;-0.919067383;13.091656685;183;188;220;1
14.792240143;-1.384380341;12.719702721;124;128;155;1
14.682388306;-1.231004715;12.865713120;124;130;156;1
14.812522888;-1.251430511;12.848150253;109;106;133;1
14.630992889;-0.931871414;12.810207367;31;30;36;1
14.283796310;-1.311222076;12.925353050;100;99;113;1
14.505434036;-1.324952126;12.933387756;70;69;85;1
14.538425446;-1.374567032;13.014158249;81;82;100;1
14.287206650;-1.353947639;13.046415329;131;142;172;1
14.798007011;-1.312750816;12.942744255;106;107;127;1
14.601890564;-1.299031734;12.892007828;156;155;186;1
14.635269165;-1.274147987;12.983446121;118;125;151;1
14.788591385;-1.198488235;12.933833122;129;136;162;1
14.763917923;-1.309723854;13.151030540;125;130;162;1
14.860084534;-1.063983917;12.993910789;98;98;134;1
14.652257919;-0.887440681;12.899040222;65;63;74;1
13.884164810;-0.798774719;12.606821060;185;190;222;1
13.949192047;-0.735027313;12.662590027;69;60;51;1
13.731789589;-0.696532249;12.712266922;173;177;212;1
13.880357742;-0.657220840;12.599836349;131;135;164;1
14.036227226;-0.853933334;12.705045700;74;81;97;1
14.109393120;-0.645896912;12.696628571;33;35;47;1
14.189497948;-0.580885887;12.668344498;61;70;87;1
14.065645218;-0.740505695;12.731293678;128;132;157;1
14.046110153;-0.797759056;12.813302040;65;61;58;1
14.235677719;-0.789699554;12.785283089;18;16;27;1
13.722507477;-0.403863430;12.594353676;146;152;178;1
13.852327347;-0.260749817;12.811252594;54;54;44;1
14.089506149;-0.520864487;12.667138100;71;74;81;1
14.209875107;-0.319011688;12.658910751;106;113;132;1
14.014965057;-0.531788826;12.743349075;59;70;74;1
13.683252335;-0.588186741;13.015484810;149;148;182;1
13.737941742;-0.790420532;13.134379387;125;130;150;1
13.845546722;-0.827697754;13.145524025;121;117;132;1
13.850044250;-0.595341206;13.075072289;121;125;160;1
14.258106232;-0.788137436;12.889119148;70;76;90;1
14.169401169;-0.689973354;13.047604561;133;137;174;1
14.127507210;-0.668932438;13.168264389;123;128;157;1
14.186301231;-0.609798908;13.109702110;98;99;130;1
13.887123108;-0.294916153;12.898736000;57;58;50;1
14.049486160;-0.421278477;13.122316360;70;68;90;1
14.182023048;-0.295729637;13.154806137;45;43;44;1
14.524292946;-0.747974396;12.626953125;44;51;59;1
14.560530663;-0.720397949;12.718275070;107;113;125;1
14.410545349;-0.691489220;12.626596451;136;146;173;1
14.370761871;-0.564801216;12.700717926;115;119;146;1
14.497117996;-0.636846542;12.635125160;82;88;102;1
14.453838348;-0.682401657;12.719308853;94;102;115;1
14.337285995;-0.784320831;12.793285370;127;134;160;1
14.396743774;-0.720806599;12.853288651;201;205;232;1
14.520515442;-0.815103531;12.784647942;68;70;83;1
14.512868881;-0.714215279;12.828041077;49;50;71;1
14.308524132;-0.648838043;12.770479202;69;73;98;1
14.604068756;-0.830889702;12.580571175;182;189;218;1
14.639432907;-0.691820145;12.782137871;67;65;79;1
14.286034584;-0.522416115;12.654639244;65;71;95;1
14.350875854;-0.411634922;12.580826759;94;87;103;1
14.381454468;-0.409743309;12.713739395;85;85;111;1
14.467349052;-0.500191212;12.670759201;46;44;58;1
14.362810135;-0.300829887;12.634043694;210;208;232;1
14.502985001;-0.302890778;12.679890633;21;21;23;1
14.413081169;-0.314369202;12.739593506;22;25;18;1
14.556316376;-0.349017143;12.752988815;73;69;66;1
14.486684799;-0.367755890;12.824227333;53;57;60;1
14.638690948;-0.274720669;12.690722466;39;35;36;1
14.610553741;-0.437318802;12.810791016;37;37;39;1
14.500139236;-0.644392014;12.901279449;134;133;149;1
14.324941635;-0.626715660;13.167880058;49;54;48;1
14.710266113;-0.781056404;12.941459656;182;188;212;1
14.627103806;-0.759880066;12.887915611;71;70;76;1
14.787719727;-0.835695744;13.001790047;89;90;120;1
14.804605484;-0.718774796;13.042764664;47;47;57;1
14.707027435;-0.607759476;13.066840172;153;153;179;1
14.694808960;-0.576225281;13.161409378;103;104;134;1
14.547866821;-0.530585289;12.951483727;26;25;30;1
14.556000710;-0.494141579;13.061358452;83;81;95;1
14.396556854;-0.274774075;13.166175842;47;43;58;1
14.674123764;-0.480098724;12.944086075;79;86;96;1
14.863216400;-0.516114235;12.975784302;52;49;58;1
14.665157318;-0.380264282;13.160951614;129;140;162;1
15.382040024;-1.332563400;12.438550949;149;154;173;1
15.007490158;-0.271429539;11.985245705;66;69;84;1
15.254506111;-0.409882545;12.073927879;95;95;129;1
14.918468475;-0.372174740;12.384971619;56;48;71;1
14.995545387;-0.317185402;12.495506287;84;94;106;1
15.074127197;-0.261423111;12.524859428;90;87;114;1
14.903171539;-1.384013176;13.161355972;106;112;138;1
14.941395760;-0.910259247;12.937948227;247;253;253;1
15.117816925;-0.862497330;12.999199867;33;30;37;1
15.017653465;-0.868839741;13.023427010;209;215;237;1
15.068376541;-0.905018806;13.104108810;67;63;80;1
15.328392982;-1.008078575;13.149728775;114;118;143;1
14.953466415;-0.595429420;12.785881996;82;83;87;1
15.032762527;-0.640036583;12.867588997;46;40;50;1
14.962585449;-0.314518929;12.596627235;140;149;180;1
14.970268250;-0.291449547;12.703187943;115;116;146;1
15.045394897;-0.263269901;12.624608994;78;77;95;1
15.115367889;-0.795696259;12.923268318;124;131;160;1
14.930093765;-0.589553833;12.883280754;99;102;109;1
14.896474838;-0.675088882;13.010899544;68;66;77;1
15.012023926;-0.598172188;12.980031013;115;116;147;1
15.092132568;-0.694500923;13.006220818;39;38;44;1
15.050428391;-0.784510612;13.159291267;44;42;55;1
15.004513741;-0.677083969;13.079235077;80;74;86;1
15.066223145;-0.684859276;13.168375969;36;36;34;1
15.205877304;-0.794213295;12.970346451;109;114;133;1
14.890597343;-0.266077518;12.887257576;135;141;173;1
14.940734863;-0.544413567;13.168190956;113;110;139;1
15.074169159;-0.415597916;13.152508736;147;157;184;1
14.933828354;-0.260718346;13.030127525;136;139;170;1
15.147619247;-0.334370613;13.162227631;105;106;126;1
15.187653542;-0.424642563;13.120124817;124;132;153;1
13.791942596;-0.111382477;12.031382561;77;75;60;1
13.712614059;-0.126990318;12.104111671;88;76;88;1
13.931662560;-0.167434692;12.002474785;15;15;15;1
13.846927643;-0.242520809;12.096817017;103;101;115;1
13.958771706;-0.147300720;12.105897903;15;13;16;1
13.714374542;-0.015456200;12.109851837;105;109;110;1
13.941272736;-0.055054661;12.020389557;127;129;150;1
13.748857498;-0.181763649;12.189089775;103;101;115;1
13.877336502;-0.231218338;12.270336151;50;42;53;1
13.823059082;-0.126550198;12.245149612;67;63;52;1
14.049055099;-0.211385727;11.995695114;150;150;178;1
14.188622475;-0.111839771;12.016398430;65;63;84;1
14.255990028;-0.069112301;12.107094765;124;125;155;1
14.139061928;-0.154178619;12.156286240;42;32;41;1
14.237197876;-0.198765278;12.176976204;67;77;86;1
13.798023224;0.281004906;12.098259926;60;54;82;1
13.811674118;0.191401482;12.192893982;171;170;184;1
13.743366241;0.108839042;12.229396820;78;67;81;1
14.017503738;0.167965412;12.015682220;84;83;79;1
14.118704796;0.169162750;12.195041656;85;86;81;1
13.793928146;-0.117398262;12.340994835;215;228;237;1
13.875068665;-0.192864418;12.368128777;85;82;89;1
13.718675613;0.036590580;12.372401237;70;74;86;1
13.919820786;0.034388538;12.350290298;148;141;159;1
13.807404518;-0.063053608;12.458116531;85;83;104;1
14.054641724;-0.019364830;12.418517113;74;75;69;1
14.035383224;-0.079969883;12.504558563;140;141;169;1
13.765442848;0.197656155;12.292845726;92;96;97;1
13.884164810;0.217735291;12.288494110;190;207;217;1
13.929718018;0.265938759;12.379423141;78;77;73;1
13.811765671;0.116508007;12.565552711;180;190;225;1
13.927069664;0.292592049;12.552592278;114;120;146;1
14.007476807;0.125835419;12.321742058;141;138;165;1
14.090866089;0.251929760;12.528483391;85;84;98;1
14.285090446;-0.214684963;12.032553673;59;66;58;1
14.375271797;-0.189099789;11.995419502;18;23;19;1
14.469179153;-0.112123489;12.034163475;63;73;74;1
14.498215675;-0.250374794;12.078595161;62;64;76;1
14.540872574;-0.108826637;12.117005348;20;25;18;1
14.332692146;-0.048125740;12.038382530;66;78;92;1
14.432968140;0.001054290;12.020906448;46;44;65;1
14.536043167;0.001856800;11.991528511;160;164;189;1
14.429483414;-0.074031830;12.118824005;17;17;15;1
14.288418770;-0.201467037;12.264791489;27;42;37;1
14.407361031;-0.147246361;12.222856522;29;34;37;1
14.458618164;0.005583290;12.265399933;72;71;67;1
14.577987671;-0.165063381;12.041851997;60;72;86;1
14.601261139;-0.184834003;12.148717880;69;71;94;1
14.454967499;0.189823627;12.241809845;178;181;214;1
14.620820045;0.160891533;12.132229805;200;205;234;1
14.577213287;0.098795407;12.199332237;214;221;249;1
14.329668999;-0.183890820;12.410341263;88;81;88;1
14.457406998;-0.148491383;12.317109108;143;143;179;1
14.319056511;0.013535980;12.323588371;63;62;57;1
14.548143387;-0.077154160;12.337862015;215;220;249;1
14.548110008;-0.210137367;12.469553947;193;200;228;1
14.653784752;-0.081080437;12.335327148;213;216;251;1
14.618621826;-0.139169216;12.458765984;43;58;37;1
14.556721687;0.083342552;12.439330101;189;199;226;1
13.911141396;0.636608601;12.097440720;58;48;57;1
13.694635391;0.399833679;12.166491508;156;154;176;1
14.150354385;0.356688976;12.068314552;80;85;114;1
14.022523880;0.621891975;12.149066925;81;83;108;1
13.925630569;0.922027588;12.128965378;82;78;103;1
13.877443314;0.879596233;12.235238075;118;117;125;1
14.022882462;0.777028561;11.979824066;86;78;75;1
14.185735703;0.777412415;11.992651939;92;89;82;1
14.259304047;0.698133945;12.095709801;87;83;80;1
14.178743362;0.820697308;12.101582527;85;79;83;1
14.175527573;0.713040352;12.160039902;87;87;85;1
14.185826302;0.777374268;12.254902840;149;148;164;1
14.039514542;0.859993935;12.133754730;87;91;77;1
14.204854965;0.860385895;12.193789482;78;74;75;1
13.764528275;0.480427742;12.411266327;76;76;86;1
13.815675735;0.585436344;12.381551743;129;130;125;1
13.831281662;0.551248550;12.279361725;78;77;72;1
13.957996368;0.495616436;12.434166908;114;118;119;1
14.113470078;0.388770580;12.295191765;125;128;159;1
13.998344421;0.391912937;12.419602394;81;89;92;1
14.057559967;0.620656490;12.391447067;68;65;58;1
13.764813423;0.742387772;12.309349060;151;157;191;1
13.949949265;0.900259495;12.518245697;89;85;76;1
13.818680763;0.937531471;12.478947639;68;67;83;1
14.214927673;0.734104156;12.342741966;82;76;86;1
14.113483429;0.790608406;12.339587212;71;74;67;1
14.264432907;0.890551090;12.335512161;63;62;68;1
14.174468994;0.858506203;12.417353630;114;110;109;1
14.236453056;0.716069221;12.446294785;89;89;91;1
14.259606361;0.916629791;12.438863754;31;30;46;1
14.155308723;0.838370323;12.528264046;68;65;72;1
14.436660767;0.547039032;12.039362907;81;78;97;1
14.524510384;0.602049351;12.045969963;72;76;105;1
14.401254654;0.529712677;12.172563553;121;133;155;1
14.430791855;0.485983849;12.263427734;19;17;18;1
14.598260880;0.540555954;12.098519325;63;64;92;1
14.712585449;0.578655243;12.219583511;80;79;110;1
14.812997818;0.564178944;12.189221382;120;120;156;1
14.525770187;0.702322006;12.075925827;71;75;110;1
14.813097000;0.829885960;12.106068611;94;90;89;1
14.601003647;0.680315971;12.206392288;107;108;139;1
14.783740997;0.671327591;12.206872940;120;132;144;1
14.823238373;0.774728775;12.249782562;94;96;121;1
14.383286476;0.447773457;12.451683044;25;17;28;1
14.286827087;0.417522430;12.542891502;40;28;40;1
14.547542572;0.627603054;12.465391159;37;34;63;1
14.672884941;0.489388466;12.291360855;82;88;110;1
14.653137207;0.466546535;12.405122757;135;139;168;1
14.631467819;0.616562366;12.278125763;116;115;146;1
14.605632782;0.574629784;12.367690086;125;124;155;1
14.779014587;0.537100792;12.343675613;136;147;175;1
14.781070709;0.637866974;12.341599464;51;48;69;1
14.800716400;0.415303707;12.555267334;144;157;174;1
14.682670593;0.564400196;12.447980881;80;78;99;1
14.854213715;0.524962425;12.489616394;63;66;83;1
14.367733002;0.809354782;12.560718536;152;154;169;1
14.670988083;0.707673073;12.347300529;97;95;116;1
14.848628998;0.708927631;12.391405106;141;150;179;1
14.634317398;0.696440697;12.475722313;89;91;112;1
14.761857986;0.934155941;12.518714905;86;83;92;1
13.688732147;-0.221462727;12.666779518;76;74;75;1
13.771545410;-0.185529709;12.747043610;68;63;85;1
13.777509689;-0.109031200;12.847128868;191;200;233;1
14.039011002;-0.158077240;12.623249054;72;71;79;1
13.972951889;-0.197556019;12.703219414;70;68;56;1
13.804096222;0.254048347;12.864477158;88;85;106;1
13.690813065;0.280948639;12.860635757;102;99;106;1
14.056609154;0.093264103;12.823987007;18;18;16;1
14.181069374;0.045706268;12.869053841;24;18;22;1
13.740688324;-0.133330345;12.938935280;64;62;73;1
13.886608124;-0.154268265;12.927288055;87;97;99;1
13.737785339;0.003224370;12.900954247;68;66;87;1
13.708625793;-0.023873329;13.012255669;61;58;69;1
13.689765930;-0.158273697;13.031553268;166;165;179;1
13.922153473;-0.183359146;13.023243904;161;174;190;1
13.762654305;-0.064458370;13.087415695;124;125;155;1
14.029636383;-0.065694332;12.961369514;169;178;209;1
14.012322426;0.005325790;13.036378860;201;204;235;1
13.740954399;0.101929657;12.980665207;151;154;189;1
13.963386536;0.147731781;12.937487602;22;16;30;1
13.773256302;0.223207474;12.960597992;148;155;163;1
13.726829529;0.081253052;13.093588829;170;177;206;1
13.816190720;0.135074615;13.087514877;136;141;147;1
13.713871002;0.200033188;13.059501648;108;109;127;1
13.734460831;0.330561161;13.093084335;79;84;103;1
13.693559647;0.264876366;13.167665482;201;203;226;1
13.842649460;0.324491978;13.091864586;80;79;93;1
13.973618507;0.050033089;12.918272018;22;19;38;1
14.074781418;0.159937382;12.947192192;43;35;50;1
14.074039459;0.145875454;13.150563240;41;35;63;1
14.468687057;-0.185702801;12.706752777;155;154;160;1
14.814678192;-0.050915722;12.790472984;56;51;81;1
14.748537064;-0.078720093;12.865677834;56;55;86;1
14.286475182;0.302550316;12.736763954;125;133;156;1
14.563096046;-0.194883823;12.921770096;42;42;42;1
14.556999207;-0.205894947;13.069287300;50;42;53;1
14.467696190;-0.188513279;13.137178421;49;47;58;1
14.671955109;-0.121613979;12.938174248;45;43;64;1
14.687732697;-0.187576771;13.011968613;72;65;81;1
14.860912323;-0.187057972;12.977000237;117;122;154;1
14.277778625;0.076966293;12.876713753;36;27;44;1
14.760854721;0.099867821;12.942120552;128;124;139;1
14.764095306;0.327725887;12.897759438;160;160;188;1
14.234184265;0.375460148;12.785299301;135;142;170;1
14.113738060;0.639106750;12.771470070;79;73;73;1
14.077639580;0.526163101;12.859737396;96;94;107;1
13.853500366;0.920235157;12.703885078;80;80;72;1
14.180370331;0.785718441;12.615406036;80;74;74;1
14.261851311;0.861034870;12.591088295;23;23;23;1
14.200798988;0.936249733;12.638974190;64;75;97;1
14.169302940;0.850052357;12.696808815;46;45;61;1
14.148105621;0.775262356;12.792325974;113;112;108;1
14.003499985;0.876825333;12.741205215;92;92;80;1
14.036580086;0.795017719;12.832978249;95;97;83;1
14.262849808;0.875444889;12.744672775;49;50;36;1
14.205360413;0.888524055;12.830757141;76;85;84;1
13.922166824;0.520372391;12.879065514;95;102;112;1
13.893061638;0.602821827;12.931475639;78;83;87;1
13.936292648;0.623217106;13.058737755;89;89;79;1
14.000044823;0.585270882;12.907629013;89;77;89;1
14.023627281;0.455751896;13.029119492;93;95;116;1
13.889159203;0.712816238;12.984949112;83;89;101;1
13.965528488;0.665532589;13.146267891;81;82;76;1
13.862577438;0.845432758;13.164075851;59;66;85;1
14.019762039;0.714565277;12.896182060;72;67;61;1
14.114728928;0.769853115;12.911523819;30;30;32;1
14.023928642;0.705305099;13.010600090;80;83;74;1
14.143235207;0.784808636;13.103439331;70;63;70;1
14.310380936;0.481113434;12.668992043;111;115;140;1
14.407858849;0.448242664;12.677508354;16;13;30;1
14.467769623;0.570402145;12.666555405;25;23;36;1
14.323095322;0.411536217;12.838736534;29;25;50;1
14.334629059;0.502750874;12.767335892;90;96;108;1
14.440184593;0.603034019;12.781514168;209;214;246;1
14.550530434;0.594799042;12.748486519;179;179;213;1
14.712156296;0.548277855;12.657939911;108;113;142;1
14.709136963;0.504906654;12.756948471;141;148;174;1
14.665932655;0.625316143;12.744559288;143;152;185;1
14.544252396;0.689528465;12.589538574;97;100;107;1
14.482326508;0.807205200;12.684118271;177;195;197;1
14.312074661;0.665062904;12.789215088;151;156;185;1
14.675134659;0.708190441;12.675679207;148;152;181;1
14.739649773;0.710486889;12.768559456;120;128;164;1
14.544427872;0.509630680;13.131212234;137;148;168;1
14.813222885;0.637857914;13.008323669;105;107;128;1
14.646245956;0.564074039;13.055301666;95;101;125;1
14.763463974;0.771922588;13.005276680;117;118;122;1
14.949916840;-0.188848495;12.012624741;83;90;98;1
14.872080803;-0.139018536;12.051455498;44;49;45;1
15.129773140;-0.221127987;12.038272858;72;70;84;1
14.977240562;0.039077278;12.552000999;59;47;69;1
15.010030746;0.184139252;12.362829208;62;62;70;1
14.985671043;0.086438179;12.456513405;98;97;111;1
15.125673294;0.079195499;12.455353737;140;147;175;1
15.228762627;0.048158169;12.433316231;148;158;183;1
14.909587860;0.602696896;12.111685753;106;116;141;1
15.012200356;0.612738609;12.109394073;123;123;151;1
14.976891518;0.611204624;12.203310013;63;65;90;1
15.005781174;0.768294334;12.045094490;44;44;68;1
14.927030563;0.840901375;12.099085808;36;32;57;1
14.986143112;0.713309765;12.130509377;37;36;44;1
14.927404404;0.713212490;12.244888306;94;103;110;1
14.923621178;0.882568836;12.192941666;90;95;117;1
14.911083221;0.478874683;12.415070534;148;156;175;1
14.991453171;0.560730457;12.337353706;39;41;56;1
14.892873764;0.621090412;12.301753998;72;74;86;1
15.049293518;0.634501934;12.300978661;23;26;35;1
14.947837830;0.574459076;12.436202049;25;23;37;1
14.948549271;0.673532963;12.374643326;68;69;89;1
14.932779312;0.778299332;12.376377106;101;102;132;1
15.118254662;0.779753208;12.313695908;21;25;24;1
15.048521042;0.785430908;12.387596130;45;46;64;1
15.009969711;0.781481266;12.490536690;74;78;90;1
14.942745209;0.822684765;12.558579445;79;88;105;1
15.135852814;0.849932194;12.495029449;43;41;52;1
15.172327995;0.901717186;12.415952682;34;37;46;1
14.927961349;0.003146650;12.644067764;56;46;71;1
14.935166359;-0.073241711;12.708205223;102;109;128;1
14.940525055;-0.203620434;12.756744385;118;125;154;1
14.928819656;-0.060077190;12.866680145;86;90;101;1
14.957416534;0.197270393;12.733970642;111;113;128;1
14.946724892;-0.123700619;12.942990303;150;157;183;1
15.114421844;-0.253268719;13.014481544;103;101;125;1
14.966133118;-0.152379990;13.039624214;139;146;172;1
14.987392426;-0.188344955;13.136235237;93;93;101;1
15.208893776;-0.165678501;12.943772316;101;100;114;1
15.264904976;-0.116972446;13.016579628;103;104;135;1
15.285834312;-0.163618565;13.168063164;129;136;162;1
14.924694061;0.173768997;12.921104431;72;69;96;1
14.891274452;0.559553146;12.670758247;46;52;66;1
15.099520683;0.638809204;12.656073570;43;44;46;1
15.050487518;0.617654800;12.746749878;37;37;49;1
15.024538994;0.583676815;12.838876724;70;70;80;1
15.285018921;0.440541744;12.681277275;146;152;168;1
15.382121086;0.400616169;12.635580063;89;90;94;1
15.006111145;0.773472309;12.687932968;38;37;55;1
15.159881592;0.885660648;12.604333878;105;106;126;1
15.145944595;0.802011967;12.693841934;75;73;97;1
15.077838898;0.817737579;12.786343575;125;132;148;1
15.252183914;0.786301613;12.853255272;113;115;128;1
14.937334061;0.482315063;13.107685089;105;102;129;1
14.954526901;0.598970890;13.135746002;142;148;172;1
15.063630104;0.520366669;13.058770180;71;68;87;1
15.200572968;0.437480927;12.900033951;28;26;29;1
14.935523987;0.679509640;13.055726051;125;132;148;1
15.668632507;0.872567654;12.835865021;124;121;152;1
15.767849922;0.932482243;13.114674568;163;158;180;1
11.346471786;1.455523968;10.780450821;107;90;80;1
11.492149353;1.235850334;11.162385941;211;217;239;1
11.506742477;1.327713013;11.117997169;225;223;247;1
11.512133598;1.424774647;11.144679070;108;88;90;1
11.363404274;1.536868095;11.236884117;114;116;129;1
11.858100891;1.424410820;11.089992523;127;126;140;1
11.869874001;1.444522381;11.322295189;155;168;202;1
11.952519417;1.377747536;11.028867722;138;152;181;1
12.021149635;1.454537868;11.016642570;119;130;160;1
11.919375420;1.482765198;11.030872345;105;103;114;1
11.952585220;1.387101650;11.131883621;117;130;149;1
11.990204811;1.306733608;11.195068359;109;114;118;1
11.944468498;1.512705326;11.126282692;132;136;171;1
11.900441170;1.331689835;11.352836609;101;99;121;1
11.897235870;1.418026447;11.229477882;150;165;198;1
11.900056839;1.517811775;11.259597778;133;141;178;1
11.971505165;1.458535194;11.332577705;101;99;123;1
11.384123802;1.604698181;10.809586525;89;82;90;1
11.377832413;1.662822723;10.891130447;72;63;66;1
11.310079575;1.745011330;10.841282845;45;50;44;1
11.407819748;1.596639633;11.058940887;104;87;93;1
11.674694061;1.721161842;10.798713684;119;120;106;1
11.792135239;1.781030655;10.790122986;89;99;88;1
11.860863686;1.804254532;10.922159195;85;85;111;1
11.481878281;1.855080605;10.780714989;97;90;97;1
11.393957138;2.058389664;10.829937935;129;123;135;1
11.336524963;2.127386093;10.913745880;113;110;129;1
11.408815384;1.930826187;11.071250916;106;110;122;1
11.535045624;1.855473995;11.044171333;216;221;240;1
11.381258011;2.105495453;11.024442673;40;39;53;1
11.526933670;2.075170517;10.995815277;143;143;167;1
11.445674896;2.017212868;11.035216331;129;134;140;1
11.623548508;2.037050724;10.906867027;107;95;107;1
11.853507996;2.130698204;10.830050468;59;55;52;1
11.712727547;2.006846428;10.961951256;64;62;67;1
11.516781807;1.603425503;11.144548416;68;40;39;1
11.497374535;1.681614876;11.084948540;125;119;131;1
11.534906387;1.815304756;11.329248428;177;181;206;1
11.580695152;1.679633617;11.216348648;66;43;37;1
11.721725464;1.832244873;11.160055161;127;126;121;1
11.612321854;1.761878967;11.366412163;161;159;180;1
11.830116272;1.728984833;11.240650177;95;86;91;1
11.496505737;1.901500225;11.130390167;135;136;167;1
11.408790588;2.059650421;11.182053566;112;122;124;1
11.572885513;2.010838509;11.079894066;142;146;173;1
11.491312027;2.097527504;11.111636162;145;143;164;1
11.489813805;2.131608009;11.212056160;64;61;90;1
11.442289352;1.880367279;11.287912369;162;161;192;1
11.479556084;1.983671188;11.337847710;128;134;148;1
11.367845535;2.112608910;11.259809494;160;164;191;1
11.599223137;1.904084206;11.106020927;143;141;162;1
11.778983116;1.984593391;11.199366570;201;208;216;1
11.806183815;2.135821342;11.217494965;72;61;75;1
11.845190048;2.018109322;11.271591187;26;23;50;1
11.755940437;2.096646309;11.340560913;32;29;22;1
11.993816376;1.771924973;10.888285637;107;113;129;1
11.939044952;1.697780132;10.997605324;127;129;142;1
11.989451408;1.747060776;11.071489334;179;192;201;1
12.464028358;1.712798119;10.842320442;90;94;103;1
12.419678688;1.806074142;10.863093376;75;79;91;1
11.984283447;1.869517803;10.796463013;65;43;29;1
12.058872223;1.948147774;10.847462654;79;93;78;1
11.960734367;2.134763718;10.881566048;133;129;146;1
12.092642784;2.113259315;10.900145531;204;196;217;1
11.938702583;1.868585587;11.069666862;113;117;128;1
12.093717575;1.895156860;11.051422119;194;186;207;1
11.982263565;2.051212311;11.029213905;124;122;143;1
12.240238190;1.916108131;10.802171707;92;97;93;1
12.362099648;1.883660793;10.833542824;86;83;92;1
12.466418266;1.894264698;10.838400841;56;45;53;1
12.204830170;1.889251709;11.039554596;197;213;228;1
