//X;Y;Z;Illuminance (PCV)
5.839600086;-16.351900101;2.742100000;1
8.071900368;-17.354400635;3.864900112;1
6.622200012;-14.886899948;2.865299940;1
5.993100166;-14.462900162;2.626800060;1
6.253200054;-14.254699707;2.791699886;1
6.025400162;-14.519499779;3.395900011;1
6.117800236;-18.902000427;4.373199940;1
6.760300159;-19.874200821;2.650300026;1
7.573599815;-17.143100739;1.629199982;1
6.694600105;-15.422499657;7.476600170;1
8.166099548;-15.880499840;9.588800430;1
8.441100121;-15.007200241;7.823699951;1
8.369999886;-17.064399719;9.459400177;1
8.539600372;-16.085199356;8.773799896;1
6.809000015;-15.974800110;8.408900261;1
7.582799911;-16.759599686;8.935999870;1
8.425100327;-16.890800476;9.460300446;1
8.786399841;-15.640700340;8.197699547;1
7.864299774;-15.213399887;8.575599670;1
7.706399918;-17.569200516;9.245900154;1
8.604299545;-15.639200211;8.419199944;1
9.168600082;-16.050600052;8.211500168;1
8.310600281;-16.779600143;9.521100044;1
8.418700218;-16.851699829;9.216300011;1
8.245400429;-16.893699646;9.528300285;1
9.489199638;-16.277799606;8.216500282;1
8.749300003;-14.966799736;7.952199936;1
9.786800385;-16.563400269;7.887400150;1
9.942199707;-17.286800385;7.375000000;1
9.514200211;-19.213899612;7.839799881;1
9.377499580;-17.206899643;8.486800194;1
6.421400070;-15.897600174;8.030699730;1
6.576300144;-16.201999664;8.702799797;1
5.868199825;-18.636199951;8.422499657;1
6.877600193;-16.388399124;7.842599869;1
6.640299797;-16.022300720;8.135100365;1
6.561299801;-18.102199554;9.299900055;1
7.121300220;-17.986099243;9.270199776;1
6.585000038;-16.180200577;7.972000122;1
7.105400085;-16.682100296;8.436200142;1
6.565999985;-16.161899567;8.281399727;1
6.336999893;-17.194900513;7.817699909;1
11.000499725;-16.756399155;7.214499950;1
10.074700356;-16.925699234;8.493200302;1
8.492500305;-14.651399612;7.050499916;1
8.504099846;-14.572799683;6.969099998;1
8.161399841;-18.614000320;9.374799728;1
5.851799965;-18.996299744;8.524499893;1
6.737500191;-19.808300018;8.551899910;1
6.498400211;-15.648699760;5.455999851;1
7.781799793;-14.220100403;6.889800072;1
6.566899776;-15.661899567;5.554399967;1
7.783299923;-14.730400085;5.454299927;1
6.803999901;-15.669699669;5.796000004;1
7.560699940;-13.592200279;5.274000168;1
7.038199902;-14.966300011;5.698900223;1
8.169300079;-14.229000092;7.275000095;1
6.060999870;-15.104200363;5.529200077;1
7.748099804;-14.758199692;5.222099781;1
8.837900162;-14.957200050;5.878600121;1
8.855500221;-14.682900429;5.791299820;1
8.821599960;-14.770000458;6.493500233;1
10.615500450;-15.853099823;7.121200085;1
10.398599625;-15.878299713;5.456299782;1
8.907699585;-14.777799606;5.900400162;1
7.864600182;-16.346399307;5.357699871;1
6.750800133;-15.864700317;5.840000153;1
8.208499908;-16.599700928;6.694300175;1
8.065199852;-16.624799728;6.329599857;1
7.047900200;-16.145200729;5.613100052;1
10.729299545;-18.010099411;5.929500103;1
12.023200035;-17.204599380;6.607299805;1
11.298700333;-17.240100861;7.002299786;1
10.527700424;-16.660600662;6.699600220;1
11.235899925;-17.605800629;6.868800163;1
11.421600342;-16.082399368;6.934000015;1
11.243200302;-17.792600632;6.783199787;1
11.826100349;-16.996400833;7.065499783;1
11.548800468;-17.484300613;6.687600136;1
10.349599838;-16.700099945;5.022799969;1
10.671600342;-16.972999573;5.493999958;1
10.551899910;-16.485599518;6.565999985;1
4.701799870;-17.096700668;5.474999905;1
5.513599873;-17.388000488;6.742499828;1
5.304800034;-17.646099091;6.794400215;1
8.538999557;-17.872299194;6.764100075;1
8.784399986;-18.327199936;7.377600193;1
10.273300171;-18.242700577;6.542200089;1
10.168600082;-18.499300003;7.104899883;1
8.512999535;-18.066699982;6.886499882;1
8.154000282;-18.010400772;6.931700230;1
9.726599693;-18.535499573;6.346000195;1
10.222900391;-18.330600739;6.541299820;1
9.858900070;-18.415300369;5.194600105;1
9.576999664;-18.033000946;6.610799789;1
8.014599800;-18.172700882;6.233699799;1
9.361800194;-18.013099670;7.278999805;1
4.498899937;-17.373699188;5.620600224;1
5.197999954;-18.214000702;7.328599930;1
4.439300060;-17.537000656;5.644700050;1
5.110099792;-18.365400314;7.645899773;1
5.214700222;-18.327299118;7.412700176;1
7.266600132;-19.098199844;6.627699852;1
7.357100010;-19.059900284;6.673299789;1
8.295000076;-19.651300430;6.930500031;1
6.784599781;-19.724000931;5.661300182;1
7.181600094;-19.363399506;6.616700172;1
7.055600166;-19.281099319;6.257299900;1
7.054900169;-19.204500198;6.935100079;1
7.207699776;-19.243299484;6.605800152;1
5.845699787;-14.482899666;3.386699915;1
5.776000023;-14.966600418;3.505599976;1
5.683899879;-14.210700035;3.016400099;1
9.255599976;-16.603700638;2.872400045;1
9.331999779;-16.301300049;3.143199921;1
10.146200180;-16.630399704;4.512499809;1
7.833899975;-17.585199356;4.797599792;1
8.595600128;-16.909999847;3.475600004;1
8.171400070;-17.351499557;3.848500013;1
7.813300133;-16.926700592;3.029000044;1
7.596199989;-17.428100586;2.988800049;1
7.079899788;-16.095800400;3.109100103;1
7.809400082;-17.497800827;4.582799911;1
4.419000149;-16.223499298;3.255800009;1
9.515299797;-17.544799805;3.815099955;1
9.428199768;-17.533100128;4.703000069;1
6.930099964;-17.243099213;3.040400028;1
6.434700012;-18.208599091;3.872100115;1
7.298999786;-17.811700821;4.703999996;1
6.148300171;-16.380599976;4.000000000;1
6.217700005;-18.256200790;4.336699963;1
6.583499908;-17.509300232;3.676500082;1
6.678699970;-17.718500137;4.222000122;1
6.296599865;-16.156400681;4.125000000;1
5.685200214;-16.535200119;4.152400017;1
6.090199947;-19.105499268;4.841400146;1
7.863500118;-19.836399078;5.032800198;1
5.904200077;-19.240600586;4.324800014;1
7.715700150;-18.875799179;5.182400227;1
7.011600018;-19.149900436;3.630399942;1
8.057999611;-19.232900620;5.123300076;1
6.148700237;-19.178600311;4.217800140;1
5.867599964;-19.270900726;5.343599796;1
5.979199886;-18.978300095;4.372700214;1
6.577300072;-19.052700043;4.707900047;1
11.135100365;-19.025400162;4.353099823;1
11.204400063;-19.020399094;4.238999844;1
5.259699821;-14.908200264;2.836699963;1
4.907400131;-15.188199997;2.966200113;1
8.114800453;-16.402799606;2.514100075;1
7.248400211;-17.486900330;2.533600092;1
7.263899803;-17.494100571;2.419600010;1
7.112400055;-17.839500427;2.466500044;1
6.378399849;-19.576900482;2.053400040;1
6.415100098;-19.122900009;2.652199984;1
8.728699684;-14.708000183;7.679200172;1
7.811600208;-14.587699890;7.832399845;1
7.249700069;-14.668499947;7.859099865;1
7.791900158;-14.717800140;8.023799896;1
8.617699623;-14.979299545;7.832300186;1
7.487699986;-15.909099579;7.238900185;1
8.999300003;-17.043699265;8.328599930;1
9.319800377;-16.996599197;8.431099892;1
11.049200058;-16.328699112;7.115200043;1
9.160499573;-17.106300354;7.578899860;1
10.242699623;-16.586200714;7.037399769;1
9.455100060;-16.855400085;7.762400150;1
7.978700161;-18.456399918;9.251199722;1
7.876399994;-17.596200943;9.413200378;1
7.874300003;-17.687099457;9.464200020;1
6.215899944;-15.549500465;7.476799965;1
5.678100109;-16.420999527;7.707900047;1
8.392200470;-19.129899979;8.757800102;1
9.062100410;-17.380199432;8.516400337;1
8.489999771;-18.965499878;7.492199898;1
9.104499817;-18.141799927;8.577500343;1
9.028599739;-18.085399628;8.503299713;1
8.383999825;-18.596500397;7.584199905;1
8.893799782;-17.632099152;7.851600170;1
8.336899757;-19.320499420;8.301099777;1
9.641200066;-17.862600327;7.525300026;1
9.623499870;-18.081499100;6.979499817;1
9.660799980;-18.308200836;8.112799644;1
8.814900398;-19.794900894;9.084099770;1
7.717999935;-13.713199615;5.686699867;1
11.668299675;-17.090499878;6.963300228;1
10.402899742;-17.315599442;4.730299950;1
7.975599766;-16.822500229;4.882500172;1
7.530300140;-15.516400337;5.732200146;1
8.088600159;-16.569400787;4.894299984;1
8.154500008;-16.575700760;5.053299904;1
7.924600124;-16.589599609;6.260300159;1
6.688600063;-16.519300461;5.106800079;1
10.140700340;-18.794599533;4.743299961;1
11.443200111;-18.154199600;4.907400131;1
7.047800064;-18.110399246;6.039500237;1
7.925600052;-17.898099899;6.385000229;1
7.606299877;-18.529199600;6.453800201;1
7.527299881;-17.533100128;5.374899864;1
7.871200085;-18.581600189;6.490499973;1
8.028699875;-18.394500732;6.611299992;1
7.359099865;-17.576299667;5.477200031;1
7.379399776;-19.143699646;6.553599834;1
6.918700218;-18.353700638;6.171999931;1
4.879300117;-17.624300003;6.987599850;1
5.237400055;-18.119199753;6.518499851;1
6.350699902;-17.673599243;5.947599888;1
5.106900215;-17.231700897;6.640900135;1
4.964099884;-17.515399933;6.836900234;1
7.493199825;-19.708499908;6.080699921;1
7.720200062;-19.711700439;6.035200119;1
7.410500050;-19.696699142;4.915500164;1
7.304299831;-19.601299286;6.071199894;1
7.290200233;-20.076799393;5.265600204;1
7.151400089;-19.926399231;4.972300053;1
9.258700371;-17.218500137;3.821099997;1
9.157500267;-16.550800323;2.864500046;1
6.558000088;-16.523300171;3.836400032;1
6.603099823;-17.086200714;4.023799896;1
6.838300228;-16.634500504;3.455899954;1
10.629500389;-18.108800888;4.394899845;1
7.508600235;-17.305000305;4.519100189;1
8.125499725;-19.130399704;4.566699982;1
6.680300236;-17.548400879;4.169799805;1
6.226299763;-19.266399384;3.514199972;1
7.364200115;-17.420700073;4.163400173;1
6.276899815;-18.802299500;4.870299816;1
7.345300198;-19.962799072;4.736700058;1
7.996900082;-16.942199707;2.151999950;1
7.274899960;-17.907600403;2.167000055;1
6.954899788;-20.306299210;2.294699907;1
7.088399887;-19.938999176;2.485599995;1
6.295499802;-19.591699600;2.113800049;1
6.391699791;-14.894200325;7.172100067;1
6.952499866;-14.573599815;7.728799820;1
5.573800087;-16.325599670;7.582499981;1
5.928800106;-15.448100090;7.573100090;1
5.952099800;-15.605799675;7.631899834;1
6.100599766;-15.777099609;7.479400158;1
5.982299805;-15.603599548;7.366099834;1
5.336999893;-16.473899841;7.408999920;1
5.479599953;-16.119400024;7.834599972;1
8.286100388;-17.959899902;7.018300056;1
8.355600357;-18.254999161;7.127099991;1
5.385499954;-19.378400803;7.104800224;1
5.284200191;-19.693300247;7.119699955;1
5.500500202;-19.425300598;8.323499680;1
5.355700016;-19.540399551;7.032899857;1
5.343500137;-19.613399506;7.161300182;1
5.257900238;-19.615200043;7.234200001;1
7.516399860;-18.250099182;6.476600170;1
6.232399940;-18.278200150;7.643700123;1
6.607299805;-18.879100800;6.581399918;1
6.626599789;-18.786399841;6.512100220;1
6.388700008;-16.387699127;7.033199787;1
7.524600029;-14.400600433;6.139900208;1
7.417900085;-13.685500145;5.206099987;1
7.719699860;-15.161399841;6.147999763;1
7.491799831;-14.951199532;5.821800232;1
7.365300179;-13.829600334;5.361899853;1
10.480500221;-15.657299995;4.689899921;1
7.703400135;-16.751899719;4.310500145;1
8.171999931;-17.559799194;4.091000080;1
7.631299973;-16.849500656;4.157999992;1
7.647999763;-16.853399277;5.140999794;1
5.480899811;-17.526399612;6.072700024;1
7.697199821;-17.964399338;4.449999809;1
6.645800114;-18.427799225;6.355999947;1
5.706399918;-18.047199249;6.263100147;1
6.183499813;-18.479900360;4.216599941;1
6.331500053;-18.686800003;5.576900005;1
6.849699974;-16.465099335;5.243999958;1
10.063799858;-16.481399536;5.168799877;1
10.501199722;-17.075799942;5.001999855;1
7.400100231;-18.646099091;4.801400185;1
9.462200165;-17.634199142;4.548999786;1
9.512299538;-17.550500870;4.584799767;1
6.180300236;-19.816499710;5.491399765;1
8.622099876;-16.437099457;3.482500076;1
6.037600040;-16.682699203;4.031400204;1
5.602900028;-14.757699966;3.480700016;1
9.128800392;-16.989799500;9.637299538;1
9.027799606;-17.052400589;9.850500107;1
11.569499969;-16.639499664;7.445199966;1
8.423100471;-17.844299316;6.650800228;1
8.129899979;-17.976200104;7.059999943;1
8.343700409;-17.799900055;6.711100101;1
9.483599663;-16.341899872;7.681099892;1
9.622599602;-16.650100708;7.775400162;1
9.568400383;-16.504100800;7.464600086;1
8.404500008;-17.911399841;6.930099964;1
8.650500298;-15.675600052;6.342299938;1
7.823200226;-18.286600113;9.216799736;1
7.925099850;-18.275400162;8.785400391;1
7.910200119;-18.419799805;8.852499962;1
8.028400421;-18.248899460;8.745100021;1
7.724699974;-18.431699753;8.868499756;1
7.772299767;-18.476499557;7.468100071;1
6.137000084;-18.501499176;6.550399780;1
7.556600094;-19.021999359;6.775599957;1
10.727299690;-17.179300308;5.258600235;1
10.060199738;-16.439399719;4.603099823;1
10.897199631;-17.624300003;4.670499802;1
11.653499603;-16.823299408;5.431399822;1
10.002099991;-18.411100388;5.600500107;1
10.828100204;-18.894800186;4.736599922;1
10.158100128;-18.736499786;4.829299927;1
10.763400078;-18.976600647;4.796899796;1
9.952699661;-17.269699097;4.513999939;1
9.223899841;-17.754299164;3.972399950;1
9.946800232;-16.608299255;4.565000057;1
7.932300091;-17.403699875;3.978100061;1
9.511699677;-18.065799713;5.920199871;1
9.933899879;-16.621900558;4.751500130;1
9.387200356;-16.657300949;4.903999805;1
8.627200127;-18.081100464;4.718800068;1
7.536200047;-13.703100204;5.326399803;1
7.483399868;-13.809599876;5.366300106;1
8.517399788;-18.373699188;4.890399933;1
8.594699860;-18.291900635;4.631299973;1
9.604499817;-18.636899948;5.504099846;1
9.662099838;-18.391199112;5.078100204;1
7.565000057;-16.197999954;5.269599915;1
7.651199818;-16.202699661;5.143099785;1
7.510399818;-17.462299347;4.666600227;1
7.144899845;-16.698499680;5.318500042;1
6.165299892;-16.567699432;3.974100113;1
6.199500084;-16.711000443;3.930099964;1
6.673600197;-18.497900009;4.909100056;1
7.478600025;-18.822599411;4.419700146;1
5.471399784;-17.246799469;5.755899906;1
8.139699936;-16.861999512;3.157399893;1
9.132499695;-16.580999374;1.950500011;1
9.057100296;-16.620100021;2.032399893;1
9.262599945;-16.019300461;2.929199934;1
9.609399796;-18.213699341;2.518899918;1
9.378600121;-15.635600090;3.106899977;1
5.855100155;-16.586599350;3.774899960;1
7.210599899;-19.579399109;2.055599928;1
6.625400066;-19.906299591;2.273699999;1
7.379499912;-18.847900391;2.249900103;1
7.594099998;-17.225000381;1.423099995;1
7.562200069;-17.128499985;1.519199967;1
8.236000061;-15.115300179;9.130000114;1
8.954600334;-15.949000359;8.779899597;1
7.877600193;-14.988900185;9.236700058;1
8.922599792;-16.318799973;8.868100166;1
9.055299759;-16.334400177;8.997699738;1
9.101799965;-16.573600769;10.035900116;1
9.314999580;-16.771600723;9.526300430;1
9.173100471;-17.353399277;9.609700203;1
9.034299850;-16.847799301;9.948300362;1
9.143699646;-17.401199341;9.722399712;1
9.162400246;-17.506000519;9.607799530;1
8.816900253;-17.920700073;9.811900139;1
8.994099617;-17.328800201;9.434700012;1
8.675999641;-17.392799377;9.743499756;1
9.043499947;-16.960599899;9.743200302;1
8.626199722;-17.047800064;9.587499619;1
8.644599915;-17.145599365;10.335499763;1
7.031599998;-17.260299683;9.183199883;1
8.329500198;-16.411800385;9.339300156;1
8.468000412;-16.743600845;9.923600197;1
6.904099941;-16.557100296;9.067999840;1
7.686399937;-15.136899948;8.946100235;1
8.330699921;-16.770900726;9.244999886;1
8.425000191;-16.769699097;8.526900291;1
8.434399605;-16.557600021;8.885499954;1
7.159200191;-17.492799759;9.646300316;1
6.583199978;-16.753999710;9.200799942;1
7.630599976;-16.935199738;9.199799538;1
7.165900230;-16.360099792;8.844499588;1
6.836900234;-17.368000031;9.321000099;1
8.437899590;-16.163900375;8.991999626;1
7.388199806;-16.122400284;8.911299706;1
7.579899788;-17.120199203;8.990500450;1
7.932199955;-16.929599762;9.198499680;1
6.195899963;-16.427499771;8.660699844;1
11.434200287;-16.700799942;7.600800037;1
10.323599815;-16.704000473;6.646900177;1
10.748399734;-16.727699280;6.287000179;1
10.191900253;-16.799699783;7.318699837;1
10.944499969;-18.337900162;7.352000237;1
8.600600243;-14.390600204;7.243400097;1
8.703599930;-15.578300476;6.315100193;1
8.905699730;-16.193799973;8.047499657;1
8.369199753;-14.837100029;7.892000198;1
8.282600403;-14.450799942;7.641300201;1
8.558300018;-16.148500443;6.616899967;1
8.693099976;-15.517999649;6.194499969;1
8.515000343;-15.433400154;8.383099556;1
9.153699875;-15.949099541;8.063500404;1
8.077099800;-14.948100090;8.173999786;1
9.269599915;-14.382699966;6.540599823;1
8.301400185;-14.931200027;8.004799843;1
8.520500183;-16.190799713;6.377399921;1
9.353599548;-15.828499794;7.272999763;1
8.555800438;-14.269300461;7.477499962;1
7.669600010;-14.486499786;8.138799667;1
8.006600380;-13.772700310;7.649700165;1
8.101599693;-14.072500229;7.464600086;1
6.712100029;-15.895999908;7.256999969;1
7.235199928;-15.744000435;7.151800156;1
6.805900097;-15.777999878;8.450799942;1
6.648099899;-16.274400711;6.951600075;1
6.271399975;-16.207500458;7.311800003;1
6.920100212;-15.729200363;6.314899921;1
7.605500221;-15.433500290;8.316699982;1
8.537699699;-16.373899460;8.336199760;1
5.748499870;-15.979499817;8.022899628;1
6.862599850;-19.046300888;8.680000305;1
11.383999825;-15.758399963;5.432000160;1
5.600900173;-18.055400848;7.990200043;1
11.038000107;-19.090099335;4.920100212;1
10.020299911;-17.622800827;5.337800026;1
10.294699669;-17.500999451;5.391399860;1
10.165800095;-16.658899307;5.196800232;1
7.977099895;-20.362899780;7.776999950;1
7.015799999;-20.258600235;7.360300064;1
9.342300415;-19.368299484;6.244299889;1
9.267399788;-15.856699944;4.729700089;1
9.962599754;-14.995900154;4.734600067;1
7.630499840;-13.434300423;5.748000145;1
8.897399902;-18.497200012;4.388000011;1
6.926599979;-17.411300659;5.200200081;1
6.633500099;-15.917400360;6.039800167;1
6.361800194;-16.572900772;4.741399765;1
7.616700172;-15.610099792;6.075500011;1
6.767300129;-15.672100067;5.919400215;1
6.980000019;-16.319200516;5.978400230;1
6.770699978;-15.920200348;5.743999958;1
10.163599968;-19.190200806;5.762000084;1
6.321199894;-19.477399826;4.880300045;1
6.657599926;-18.597299576;4.879499912;1
7.021299839;-18.412000656;4.650100231;1
6.362999916;-19.088199615;4.778100014;1
6.263999939;-19.609199524;4.315800190;1
7.413799763;-20.076499939;5.282299995;1
5.529300213;-18.555500031;6.360599995;1
7.964300156;-17.281499863;3.976200104;1
8.734199524;-17.219800949;2.921799898;1
8.407400131;-16.919300079;2.764199972;1
7.807400227;-17.480600357;2.611299992;1
6.746900082;-15.251299858;3.016000032;1
6.640200138;-18.832599640;4.013700008;1
5.597899914;-14.986399651;3.507699966;1
10.713899612;-19.168699265;7.254499912;1
11.105500221;-18.861900330;6.537199974;1
11.702400208;-19.345199585;6.303299904;1
11.354299545;-19.100900650;5.077600002;1
12.035400391;-17.883199692;6.561500072;1
11.071000099;-19.222900391;5.373300076;1
11.360699654;-19.114799500;4.977600098;1
11.501299858;-18.687599182;5.066599846;1
11.276900291;-19.077899933;6.149799824;1
11.316699982;-19.095199585;5.170899868;1
11.248100281;-19.256599426;5.032599926;1
11.196499825;-19.188299179;5.101200104;1
11.432900429;-17.253900528;8.229100227;1
11.400699615;-17.640600204;7.371500015;1
10.649399757;-16.626399994;8.287599564;1
9.287300110;-17.136299133;8.005599976;1
9.826299667;-16.852300644;7.045599937;1
10.561100006;-16.996500015;7.151999950;1
10.245699883;-16.896900177;7.769400120;1
10.689700127;-17.508899689;7.499000072;1
10.816200256;-17.299900055;6.853199959;1
10.633999825;-19.037000656;7.183400154;1
10.329400063;-18.692199707;7.114299774;1
10.643099785;-18.594600677;7.368400097;1
9.640700340;-17.268199921;7.430300236;1
11.161399841;-16.937700272;7.576300144;1
10.128600121;-17.945400238;7.133200169;1
10.579799652;-18.006599426;7.481100082;1
9.552599907;-17.127399445;7.279799938;1
11.388699532;-17.231500626;5.031099796;1
10.616999626;-17.371700287;4.956399918;1
10.823399544;-17.987899780;6.516699791;1
10.867199898;-18.447399139;5.059500217;1
9.848099709;-18.452600479;5.495999813;1
10.387800217;-18.892400742;5.483900070;1
10.154999733;-16.899999619;5.616799831;1
10.483799934;-19.008499146;5.510300159;1
10.685700417;-18.869400024;6.576900005;1
10.218600273;-18.263599396;5.373600006;1
11.207099915;-17.121099472;5.069300175;1
10.000499725;-18.385999680;6.485700130;1
10.743700027;-18.335899353;5.607100010;1
11.736399651;-17.667900085;5.859300137;1
11.981800079;-17.823299408;5.781400204;1
10.980500221;-16.359899521;6.190199852;1
11.430299759;-17.095199585;4.699100018;1
10.267499924;-16.885000229;6.618299961;1
9.942199707;-17.461599350;4.727200031;1
10.294199944;-18.694400787;5.334499836;1
10.588199615;-17.386899948;4.764500141;1
11.139900208;-17.133300781;4.895599842;1
9.901300430;-18.119699478;6.752500057;1
10.334199905;-16.799699783;6.547299862;1
10.320500374;-17.714599609;6.427800179;1
11.244899750;-16.879899979;5.040100098;1
12.010100365;-17.771699905;5.898200035;1
10.440600395;-19.034400940;6.573999882;1
11.119299889;-17.395399094;5.115200043;1
10.222200394;-16.987699509;5.362400055;1
10.632300377;-16.904199600;5.743100166;1
10.548500061;-18.956399918;5.691999912;1
10.267399788;-17.649099350;6.649499893;1
10.853099823;-18.398000717;6.423500061;1
11.644499779;-17.657699585;5.911200047;1
10.958900452;-17.603799820;6.822199821;1
11.577300072;-17.293300629;4.912600040;1
10.640099525;-16.116800308;5.907800198;1
10.313199997;-16.513000488;6.236000061;1
10.510499954;-19.095199585;6.173099995;1
11.948100090;-17.711799622;5.742300034;1
10.488699913;-18.255599976;5.593999863;1
9.937199593;-18.353900909;5.653100014;1
11.400300026;-18.114099503;6.342299938;1
10.277400017;-16.951700211;6.712800026;1
10.518899918;-17.698900223;6.667399883;1
10.319000244;-17.721300125;4.655000210;1
11.797900200;-17.735399246;5.717400074;1
11.640700340;-16.223699570;6.165100098;1
12.375399590;-17.244400024;6.357399940;1
11.228300095;-16.182199478;6.540699959;1
11.250900269;-15.909399986;5.674600124;1
11.029999733;-16.437099457;5.365399837;1
11.076199532;-16.254899979;6.382999897;1
12.653900146;-17.035200119;5.639400005;1
11.060999870;-16.123500824;6.293900013;1
12.545499802;-17.042400360;5.676700115;1
11.158599854;-16.081300735;5.850699902;1
11.496199608;-16.112899780;5.954500198;1
11.525799751;-15.919799805;6.063899994;1
11.578700066;-16.001100540;5.945300102;1
11.719699860;-16.732000351;6.558300018;1
9.231900215;-19.074899673;8.329299927;1
8.350500107;-19.578500748;8.201700211;1
7.794000149;-19.319400787;8.472299576;1
7.838300228;-19.151399612;8.082799911;1
9.109299660;-19.063199997;7.022299767;1
8.435700417;-19.926200867;9.326499939;1
8.333399773;-19.428800583;7.928699970;1
8.430299759;-19.902500153;8.485500336;1
8.721799850;-19.377700806;8.445099831;1
9.112299919;-19.363399506;8.665699959;1
8.528900146;-19.338600159;8.688500404;1
9.617099762;-18.975099564;8.424400330;1
8.189399719;-18.295900345;7.762100220;1
8.303999901;-19.633199692;7.401299953;1
8.540699959;-19.697000504;9.276399612;1
8.572600365;-19.046400070;8.407899857;1
9.194499969;-19.826400757;8.521400452;1
8.416899681;-18.614999771;8.805600166;1
8.440099716;-19.151800156;8.569499969;1
9.613599777;-19.063699722;7.186800003;1
8.778900146;-17.633100510;8.353500366;1
9.193799973;-18.185400009;8.770299911;1
9.177300453;-18.625200272;7.389599800;1
8.487199783;-19.478599548;8.739399910;1
8.160300255;-19.542499542;9.152199745;1
7.953499794;-19.388799667;8.264699936;1
8.445599556;-19.503000259;7.283500195;1
8.729499817;-19.733200073;8.914999962;1
8.763799667;-19.617900848;8.605099678;1
8.574199677;-19.992200851;9.118200302;1
8.937700272;-17.615999222;8.205300331;1
9.188400269;-17.985300064;7.225599766;1
8.447699547;-19.367200851;8.592700005;1
8.784500122;-19.764299393;8.640500069;1
8.509900093;-18.502500534;9.085000038;1
8.422499657;-19.149700165;8.173899651;1
7.989600182;-19.371900558;9.192500114;1
8.721799850;-18.493799210;8.020700455;1
8.219699860;-18.148399353;8.351599693;1
8.490699768;-18.429100037;7.987400055;1
8.383600235;-19.572900772;9.080300331;1
9.675600052;-19.050399780;7.104899883;1
9.082699776;-18.191499710;8.718999863;1
10.481599808;-19.056100845;7.404300213;1
9.203800201;-19.357599258;8.623299599;1
8.336400032;-19.068300247;8.680999756;1
8.534299850;-18.719999313;8.765899658;1
8.557600021;-18.642099380;8.650699615;1
8.487400055;-19.232099533;8.444700241;1
8.864399910;-18.420000076;7.956900120;1
8.250000000;-19.743000031;9.276700020;1
9.579000473;-19.022499084;7.050300121;1
8.559399605;-19.439699173;9.232199669;1
8.440600395;-19.520399094;9.221599579;1
8.701100349;-19.816200256;9.298100471;1
8.638199806;-19.591299057;8.704000473;1
8.821299553;-20.091400146;9.187399864;1
8.089300156;-19.420299530;7.828599930;1
8.752099991;-19.478799820;9.038000107;1
7.891099930;-18.406600952;9.765500069;1
8.324099541;-19.368799210;9.558099747;1
8.508500099;-18.714399338;9.342000008;1
8.347700119;-19.705400467;9.373900414;1
8.761899948;-19.261800766;9.536700249;1
8.784099579;-19.500099182;9.542400360;1
8.657299995;-19.289400101;9.451499939;1
8.698900223;-19.569999695;9.647800446;1
8.119999886;-19.449399948;9.377300262;1
8.198800087;-18.326400757;9.540800095;1
8.384599686;-18.418300629;9.413299561;1
8.484900475;-19.644599915;9.668299675;1
8.522199631;-19.637199402;9.570599556;1
9.697600365;-18.982799530;5.482699871;1
9.605400085;-19.092399597;4.890399933;1
9.207300186;-18.290000916;4.761799812;1
9.698499680;-18.625499725;5.360599995;1
8.443599701;-18.787000656;4.824299812;1
9.512499809;-19.197599411;6.660099983;1
9.604000092;-18.920700073;5.470900059;1
9.836000443;-18.878999710;6.678599834;1
8.230199814;-19.805500031;6.632699966;1
7.567500114;-19.256200790;6.106800079;1
9.996600151;-18.957799911;5.968299866;1
9.647199631;-19.136800766;6.939400196;1
7.820799828;-19.067899704;6.750899792;1
7.922200203;-18.815700531;6.110300064;1
9.718700409;-18.807899475;5.564599991;1
10.278599739;-19.035900116;5.390399933;1
9.766799927;-19.196500778;5.707799911;1
8.014900208;-19.363800049;6.786200047;1
9.576999664;-18.455400467;6.168799877;1
9.871600151;-18.618200302;5.664100170;1
9.253700256;-18.775400162;6.255000114;1
9.993599892;-18.676799774;5.711200237;1
9.490300179;-18.810300827;5.989699841;1
9.661999702;-19.025800705;6.917200089;1
10.019700050;-18.700700760;5.519000053;1
7.576499939;-19.134199142;4.971499920;1
9.598600388;-18.757499695;6.733900070;1
6.565499783;-17.629499435;9.868800163;1
7.742499828;-17.385200500;9.166899681;1
7.149199963;-17.797000885;9.723899841;1
6.815899849;-17.628700256;9.323599815;1
6.871300220;-17.790100098;9.646599770;1
6.399000168;-17.691699982;9.824399948;1
7.631100178;-16.043399811;9.552399635;1
7.362599850;-17.720699310;9.544400215;1
6.907999992;-17.780399323;9.313400269;1
6.952000141;-17.440000534;9.407899857;1
6.641900063;-17.785600662;9.547200203;1
6.432799816;-17.572799683;9.939399719;1
7.255300045;-17.934200287;9.392800331;1
6.784100056;-17.663799286;9.423299789;1
6.187399864;-17.298000336;9.383700371;1
7.190299988;-16.175100327;9.114800453;1
7.518499851;-17.811000824;9.116700172;1
8.265000343;-15.937500000;9.208299637;1
8.945500374;-16.950799942;9.714599609;1
8.956299782;-17.021499634;9.555199623;1
8.927200317;-16.196899414;9.236900330;1
8.937500000;-16.403499603;9.327599525;1
7.938099861;-15.896100044;7.352200031;1
8.511199951;-15.719699860;7.513700008;1
9.878600121;-16.328100204;7.946700096;1
8.260800362;-15.666999817;7.392899990;1
9.034600258;-17.141899109;7.179999828;1
9.635800362;-15.927599907;8.774600029;1
8.776100159;-14.993100166;8.433500290;1
9.423800468;-16.841699600;7.880899906;1
9.460900307;-15.070500374;6.630099773;1
9.732299805;-15.732500076;7.022799969;1
9.105600357;-15.212800026;6.650400162;1
9.644599915;-15.911399841;8.274399757;1
9.883899689;-16.619300842;7.080900192;1
9.681099892;-16.410499573;7.861700058;1
9.154899597;-17.219699860;6.982699871;1
8.794400215;-16.751499176;7.026700020;1
10.098400116;-16.266899109;8.248399734;1
8.817899704;-16.868000031;8.677700043;1
9.439800262;-16.336200714;7.389999866;1
9.382499695;-16.011199951;8.411399841;1
9.365799904;-16.504699707;7.507699966;1
9.895099640;-18.664100647;2.561599970;1
9.909099579;-17.465099335;3.854399920;1
10.055800438;-17.429500580;3.738300085;1
10.501000404;-17.821899414;4.447899818;1
9.882399559;-17.430200577;3.505599976;1
9.887800217;-17.306200027;3.907099962;1
9.773599625;-18.157899857;4.481400013;1
10.346699715;-18.157300949;3.576100111;1
9.303899765;-17.727500916;3.537300110;1
9.809499741;-17.846200943;4.229800224;1
9.798899651;-17.143199921;3.833800077;1
10.420900345;-18.334100723;3.461699963;1
7.536900043;-19.295099258;9.310400009;1
8.173199654;-20.115299225;9.389100075;1
8.224699974;-19.897499084;9.462100029;1
6.850100040;-19.720199585;7.967299938;1
7.232600212;-19.263799667;7.988599777;1
7.743800163;-19.956399918;9.119999886;1
6.987100124;-19.769699097;7.982500076;1
8.249300003;-20.121999741;8.726400375;1
7.662199974;-20.300800323;8.126600266;1
7.534299850;-20.209100723;8.812999725;1
7.662899971;-19.899900436;8.557000160;1
7.073900223;-19.854000092;7.942200184;1
7.714399815;-19.836399078;9.096199989;1
7.495600224;-19.974399567;8.696800232;1
7.525800228;-19.790599823;8.367799759;1
7.404799938;-19.947599411;8.278499603;1
7.455399990;-20.000000000;8.803400040;1
6.957600117;-19.371299744;7.927100182;1
6.956200123;-19.428400040;7.757999897;1
6.933499813;-20.103500366;7.727399826;1
7.082200050;-20.322999954;8.239700317;1
7.930699825;-20.072399139;7.677000046;1
8.081700325;-20.451999664;8.008700371;1
7.305099964;-20.772699356;8.204799652;1
7.229300022;-19.409299850;9.159600258;1
8.541099548;-20.628200531;7.448599815;1
7.112999916;-19.359600067;9.250300407;1
7.440299988;-19.742700577;8.630999565;1
7.693900108;-19.933900833;8.393099785;1
7.866099834;-19.855499268;9.169799805;1
7.361000061;-19.823099136;8.586799622;1
7.549399853;-20.093999863;9.095000267;1
7.049600124;-19.505300522;8.577599525;1
7.878699780;-19.868499756;7.701499939;1
7.308499813;-20.019399643;8.835399628;1
7.331799984;-19.554100037;8.273200035;1
7.572299957;-19.757900238;8.897000313;1
7.765200138;-20.233999252;8.288200378;1
8.242699623;-20.056800842;7.232699871;1
8.352700233;-20.249799728;8.131799698;1
7.292600155;-20.561399460;8.209099770;1
8.076700211;-20.498500824;8.373299599;1
7.246300220;-20.152099609;8.394599915;1
7.807400227;-20.184700012;8.887999535;1
7.035099983;-20.750000000;7.832399845;1
7.109000206;-20.182699203;8.618900299;1
7.069399834;-19.729299545;8.075099945;1
7.107200146;-20.156600952;8.406999588;1
7.497799873;-19.802299500;8.210700035;1
8.117500305;-20.110700607;8.756400108;1
7.033199787;-20.419500351;8.178500175;1
8.371600151;-20.121400833;9.123299599;1
7.158800125;-20.710199356;7.784999847;1
6.936399937;-19.776199341;8.976699829;1
7.378499985;-19.809999466;8.343400002;1
8.240599632;-19.923500061;8.815500259;1
7.641300201;-19.911800385;8.677499771;1
7.052700043;-19.475799561;8.686200142;1
7.524400234;-19.750099182;8.465200424;1
6.965600014;-20.359399796;7.940100193;1
6.673200130;-19.964300156;7.941400051;1
7.573800087;-19.791500092;8.645099640;1
7.058599949;-20.549200058;7.821199894;1
7.210400105;-20.576299667;8.310899734;1
7.624300003;-19.834999084;9.152999878;1
7.572800159;-19.925699234;7.942999840;1
8.079199791;-20.261400223;8.641599655;1
7.309899807;-19.437200546;7.747200012;1
7.636700153;-19.314199448;8.100399971;1
7.031700134;-20.048000336;8.564700127;1
8.231100082;-20.115200043;9.275400162;1
8.662199974;-20.283199310;8.884900093;1
8.100799561;-20.118799210;8.136699677;1
6.980100155;-20.536300659;8.035900116;1
7.586599827;-19.641300201;9.151700020;1
8.462200165;-20.110099792;8.981800079;1
7.232999802;-19.642999649;9.059000015;1
7.501299858;-19.897699356;9.283200264;1
7.945499897;-19.460800171;9.144599915;1
7.602799892;-20.008199692;9.051799774;1
7.198999882;-20.512399673;7.825600147;1
7.942699909;-19.918600082;8.588299751;1
6.953000069;-20.506200790;8.134900093;1
7.513100147;-19.730300903;9.163700104;1
7.612699986;-20.222000122;8.681799889;1
6.899899960;-19.975799561;8.299900055;1
7.823400021;-20.195999146;7.667900085;1
7.918600082;-19.782899857;8.997300148;1
6.875999928;-19.768999100;8.417099953;1
7.108200073;-19.743900299;7.978700161;1
7.944300175;-19.715999603;7.954299927;1
7.945899963;-20.236999512;7.873000145;1
7.457799911;-19.632600784;8.732600212;1
6.960700035;-19.910100937;8.912400246;1
8.150300026;-19.789199829;8.969300270;1
7.011799812;-19.568000793;7.910900116;1
7.456399918;-19.482500076;8.537199974;1
7.813199997;-20.466999054;8.402299881;1
6.958499908;-19.570899963;7.998899937;1
7.415400028;-19.993700027;8.484499931;1
7.587500095;-20.202499390;7.716300011;1
7.743400097;-19.844499588;8.767700195;1
7.617300034;-20.151100159;8.847499847;1
7.754600048;-19.346799850;8.296600342;1
8.172300339;-20.456699371;8.392600060;1
7.091199875;-18.506099701;8.458700180;1
7.274499893;-18.725099564;7.878699780;1
7.502799988;-17.830900192;7.287700176;1
7.115799904;-16.372600555;6.741199970;1
8.213199615;-17.992500305;8.483300209;1
7.759600163;-16.440700531;7.300799847;1
7.231800079;-16.292999268;8.550499916;1
6.966400146;-16.414800644;7.544499874;1
7.236400127;-18.750499725;8.266799927;1
6.129199982;-16.978599548;8.873499870;1
7.071800232;-18.094800949;8.609199524;1
7.410600185;-17.832099915;7.221099854;1
7.709899902;-17.605699539;7.297900200;1
8.243300438;-17.806699753;8.397299767;1
7.343999863;-18.740800858;8.197999954;1
6.307300091;-17.186300278;8.479299545;1
7.894599915;-18.163799286;8.892200470;1
7.067599773;-17.213600159;8.727899551;1
6.417900085;-17.092399597;8.965000153;1
6.213399887;-17.564800262;7.955699921;1
7.155200005;-16.323099136;8.629799843;1
6.401199818;-17.719299316;7.263599873;1
7.743400097;-17.538700104;7.386099815;1
7.958199978;-17.781400681;8.985600471;1
7.804299831;-18.006900787;8.849599838;1
8.201000214;-18.160699844;7.404500008;1
6.108200073;-17.496500015;8.244700432;1
7.738500118;-18.113399506;8.956999779;1
7.238100052;-18.521299362;8.805299759;1
7.796899796;-17.555799484;8.863499641;1
7.491099834;-17.977100372;9.041799545;1
10.889699936;-15.385600090;4.507500172;1
10.373000145;-15.350000381;4.459799767;1
10.720800400;-15.947299957;5.307499886;1
8.146699905;-15.915300369;4.822899818;1
10.216600418;-16.162099838;6.175499916;1
9.747200012;-15.584600449;6.547399998;1
10.086099625;-16.056200027;4.591199875;1
10.221199989;-16.213600159;4.976399899;1
9.581899643;-15.409999847;5.903699875;1
9.603400230;-15.938899994;4.706600189;1
10.362999916;-16.190900803;5.936299801;1
10.493499756;-16.005199432;5.815700054;1
9.345399857;-15.091699600;6.332900047;1
8.435199738;-18.809200287;4.666600227;1
9.234499931;-18.325899124;3.429800034;1
9.535599709;-18.516199112;3.583499908;1
8.651200294;-18.814800262;4.570899963;1
8.804599762;-18.853599548;4.438499928;1
6.442699909;-19.254499435;8.334600449;1
5.960599899;-17.826499939;8.110400200;1
6.330999851;-19.352699280;9.157299995;1
5.951700211;-19.496400833;8.391200066;1
6.278299809;-19.429599762;8.702899933;1
5.837399960;-17.501800537;8.384900093;1
6.074699879;-17.824899673;7.944099903;1
6.543499947;-18.722299576;7.538599968;1
5.881499767;-17.423700333;8.494199753;1
5.188700199;-18.867300034;8.603599548;1
6.468500137;-19.617500305;8.262599945;1
6.977200031;-18.484300613;8.576399803;1
6.286699772;-19.388599396;9.009499550;1
6.020699978;-18.535800934;8.688799858;1
6.377299786;-19.396900177;8.285900116;1
6.562099934;-19.140699387;7.227900028;1
7.046299934;-18.997499466;7.671899796;1
5.709700108;-19.143100739;8.395500183;1
6.253900051;-19.451000214;7.984899998;1
6.416900158;-19.361900330;7.874700069;1
6.110400200;-19.426700592;7.936999798;1
6.909599781;-19.295000076;7.371600151;1
5.965499878;-17.732999802;8.491999626;1
6.479300022;-19.017299652;7.263199806;1
6.059500217;-20.006799698;8.320500374;1
5.514100075;-18.651899338;6.943699837;1
5.748300076;-19.745199203;7.273499966;1
5.468299866;-19.545700073;7.892300129;1
6.524199963;-19.596500397;8.108499527;1
5.417900085;-17.899200439;8.861700058;1
6.515699863;-19.436599731;8.516200066;1
6.199900150;-19.479700089;8.070500374;1
6.376999855;-18.399499893;7.273700237;1
6.764500141;-19.040899277;7.185500145;1
5.128699780;-19.234199524;9.004300117;1
5.601099968;-18.690099716;8.489100456;1
6.462100029;-18.892799377;8.135899544;1
5.514999866;-18.857999802;8.769499779;1
5.440000057;-18.429300308;8.217700005;1
5.979899883;-18.885400772;7.816199780;1
5.562099934;-18.754600525;8.668100357;1
6.757699966;-19.381599426;7.969399929;1
6.715000153;-19.386999130;7.465600014;1
6.791999817;-19.344999313;7.614200115;1
5.929399967;-19.990900040;8.458600044;1
6.549699783;-19.447000504;9.203499794;1
6.066599846;-18.238100052;8.533300400;1
5.845099926;-19.696500778;8.218099594;1
6.051099777;-20.058799744;8.630299568;1
6.143099785;-18.889200211;9.038599968;1
6.188000202;-19.046899796;7.597599983;1
6.601799965;-18.763700485;7.421999931;1
6.212999821;-19.593599319;8.421199799;1
5.972799778;-17.446300507;8.459699631;1
5.793600082;-19.073400497;9.068200111;1
5.328599930;-18.608100891;8.585200310;1
6.278399944;-18.697299957;7.016200066;1
6.430500031;-19.247699738;8.160799980;1
5.953400135;-19.722700119;7.979100227;1
6.067699909;-19.001699448;7.670599937;1
6.090799809;-18.926599503;8.824399948;1
6.650599957;-19.018499374;7.295100212;1
5.829599857;-19.646600723;8.806900024;1
6.424900055;-18.072299957;7.637000084;1
6.287499905;-18.639099121;9.308699608;1
5.996200085;-18.567800522;9.252699852;1
6.071599960;-17.451499939;9.364500046;1
6.448699951;-14.048800468;7.540299892;1
8.373600006;-14.704400063;7.269800186;1
8.294199944;-14.507100105;7.507699966;1
7.033400059;-14.795900345;7.102000237;1
7.889900208;-15.255700111;8.003700256;1
7.208499908;-20.404499054;5.974899769;1
7.508999825;-20.025999069;6.775100231;1
7.078499794;-20.094299316;4.879399776;1
6.993100166;-20.410499573;5.943099976;1
7.140999794;-19.952199936;5.872200012;1
7.124800205;-19.777799606;5.674099922;1
7.157499790;-20.222000122;6.068999767;1
6.725999832;-19.912000656;5.015200138;1
7.435400009;-19.257099152;5.230299950;1
7.282899857;-19.724700928;6.087200165;1
8.046099663;-20.361299515;6.519000053;1
6.705399990;-19.838499069;7.017099857;1
6.987400055;-19.732200623;4.965600014;1
8.164699554;-20.167699814;5.461400032;1
6.877900124;-20.453399658;5.162600040;1
6.834899902;-19.722400665;6.688499928;1
7.326900005;-20.240400314;5.589900017;1
7.176499844;-20.693099976;6.983200073;1
7.289400101;-19.880500793;6.429100037;1
7.129000187;-19.859800339;5.115499973;1
7.348000050;-19.077400208;4.980299950;1
7.331299782;-17.863000870;6.428899765;1
6.537600040;-17.570800781;5.547399998;1
7.336100101;-18.330799103;4.885399818;1
8.196599960;-17.646499634;6.491099834;1
7.641499996;-18.793899536;6.373199940;1
7.723199844;-18.684600830;6.172200203;1
7.933700085;-18.446800232;5.659399986;1
7.987400055;-18.286199570;6.502299786;1
7.886600018;-18.780300140;4.844399929;1
7.855899811;-18.417699814;6.798299789;1
7.485000134;-19.096599579;5.006400108;1
7.250899792;-18.320999146;4.761499882;1
6.747300148;-18.463399887;4.646800041;1
7.842500210;-18.196300507;6.316999912;1
7.110199928;-16.273399353;6.498700142;1
7.615399837;-17.748500824;4.667099953;1
6.739500046;-16.177200317;8.175200462;1
6.154399872;-15.908599854;7.458199978;1
6.851699829;-16.219100952;8.124899864;1
7.094399929;-16.116399765;7.189099789;1
6.118299961;-16.442899704;8.587200165;1
5.153800011;-17.245100021;6.756700039;1
6.961299896;-18.825199127;6.925099850;1
6.141699791;-19.736999512;4.851699829;1
7.121600151;-19.283500671;5.952099800;1
5.118800163;-18.146799088;6.815499783;1
6.645500183;-19.356399536;5.132999897;1
6.578199863;-19.701700211;5.931399822;1
7.104100227;-19.442800522;5.382999897;1
6.303599834;-19.413999557;6.383399963;1
6.041699886;-17.902799606;6.279699802;1
6.947500229;-18.956499100;5.252399921;1
6.025899887;-19.375099182;5.680500031;1
6.263800144;-18.767299652;6.229000092;1
6.670400143;-18.788900375;6.791299820;1
6.731500149;-19.589099884;6.939599991;1
7.316999912;-19.025899887;6.345799923;1
4.920300007;-19.214599609;6.272600174;1
6.800399780;-18.977199554;6.705999851;1
6.346399784;-19.597200394;5.960400105;1
6.251100063;-19.701299667;6.257199764;1
6.609399796;-19.500999451;5.183400154;1
6.652900219;-18.907100677;5.461999893;1
5.679100037;-18.808900833;6.533999920;1
6.075399876;-17.853500366;6.097199917;1
5.809400082;-17.665300369;6.114099979;1
5.060599804;-18.633800507;6.813300133;1
6.185900211;-19.354299545;5.200200081;1
6.730999947;-18.747600555;6.677400112;1
6.547599792;-18.399099350;5.502799988;1
6.909900188;-19.583900452;5.727300167;1
7.074999809;-19.003299713;5.639100075;1
5.052599907;-18.821300507;6.256400108;1
6.636300087;-19.720300674;6.838099957;1
6.402200222;-19.853900909;4.862599850;1
6.749100208;-14.638299942;6.047999859;1
7.409599781;-13.961600304;5.591499805;1
6.578800201;-14.373700142;6.367199898;1
9.127300262;-16.447299957;2.540699959;1
8.733200073;-17.244400024;3.413800001;1
8.616100311;-16.276500702;2.670300007;1
9.678999901;-17.071899414;4.517300129;1
6.889100075;-16.500299454;4.519000053;1
5.426499844;-17.007499695;6.009600163;1
6.328199863;-16.735200882;4.846199989;1
6.497799873;-15.306599617;4.972700119;1
7.998000145;-17.026699066;3.679899931;1
7.083600044;-17.019100189;4.300700188;1
7.530000210;-17.242500305;3.796499968;1
6.315299988;-18.138799667;2.434400082;1
6.492700100;-18.198900223;2.384900093;1
6.963099957;-18.814699173;2.683399916;1
8.577099800;-17.488700867;2.354700089;1
7.126999855;-18.046199799;4.212600231;1
6.500999928;-18.216800690;2.839299917;1
7.227900028;-17.794200897;4.189300060;1
8.520899773;-18.229099274;3.882600069;1
7.739299774;-17.761600494;3.739300013;1
7.577799797;-18.227500916;4.081200123;1
7.894299984;-17.585199356;3.931699991;1
7.632699966;-19.079099655;4.490099907;1
8.013099670;-17.356399536;3.115799904;1
8.720700264;-17.604700089;2.410000086;1
6.798399925;-18.060100555;2.677900076;1
8.621199608;-17.384899139;3.523000002;1
7.498499870;-16.458099365;4.373099804;1
7.617499828;-17.756599426;3.753000021;1
6.461500168;-20.327400208;4.400400162;1
6.483099937;-20.337299347;4.602799892;1
4.342299938;-18.325700760;6.402900219;1
4.110300064;-18.172199249;6.758600235;1
4.629399776;-18.321300507;6.300199986;1
4.531700134;-17.836099625;6.002600193;1
6.770100117;-19.807199478;4.501500130;1
6.236299992;-20.010000229;4.754499912;1
6.832200050;-19.724700928;4.562300205;1
6.592999935;-20.033300400;4.359099865;1
6.641200066;-18.623500824;3.924700022;1
6.518700123;-19.793600082;4.574699879;1
6.494699955;-20.027099609;4.405200005;1
6.295899868;-19.933500290;4.511300087;1
6.265600204;-18.560300827;2.922199965;1
8.878499985;-19.617500305;1.930199981;1
8.388299942;-19.220100403;2.349499941;1
8.978699684;-18.241300583;1.544199944;1
8.866299629;-19.763000488;2.027400017;1
8.770500183;-19.718200684;2.075599909;1
8.769800186;-19.637300491;1.885300040;1
5.991799831;-17.001399994;3.664999962;1
6.887700081;-15.680199623;2.577899933;1
6.137800217;-17.045099258;3.704900026;1
5.627699852;-15.000599861;2.853100061;1
5.949600220;-17.101499557;3.340899944;1
5.976200104;-17.507400513;3.427099943;1
4.671999931;-16.015800476;2.713500023;1
5.429999828;-16.338300705;3.211499929;1
6.257400036;-17.050800323;3.454900026;1
6.340099812;-14.833499908;2.762300014;1
6.938700199;-15.281599998;2.686599970;1
4.855599880;-15.399600029;2.555599928;1
7.904200077;-19.031200409;1.988999963;1
7.450900078;-19.363500595;2.243400097;1
7.342599869;-19.191299438;2.003900051;1
7.554900169;-19.739900589;2.049400091;1
6.865499973;-20.008699417;2.431400061;1
6.887800217;-19.822299957;2.424700022;1
5.902699947;-18.346700668;0.464899987;1
6.585700035;-19.965000153;2.164299965;1
6.416999817;-19.886199951;2.148699999;1
6.797800064;-19.780599594;2.458300114;1
7.920899868;-17.527700424;-0.629100025;1
7.859099865;-15.562000275;5.593599796;1
8.902600288;-15.246500015;6.445799828;1
9.074999809;-14.551899910;6.079899788;1
8.544500351;-14.746899605;6.235700130;1
7.664899826;-14.181099892;5.709899902;1
9.136699677;-15.137800217;6.283100128;1
9.111100197;-15.333999634;6.647600174;1
7.840000153;-14.410799980;6.795199871;1
8.177000046;-14.459699631;6.011199951;1
8.053700447;-13.645099640;6.087900162;1
9.158399582;-15.146499634;6.462600231;1
6.703800201;-14.449099541;6.834400177;1
6.019100189;-16.455200195;6.445099831;1
7.166100025;-14.908599854;7.001800060;1
6.907299995;-15.985600471;5.999899864;1
7.022500038;-15.706600189;6.274400234;1
7.207699776;-14.988100052;7.078999996;1
6.908500195;-16.253599167;6.412399769;1
6.781700134;-14.905500412;6.904500008;1
7.131999969;-15.843600273;5.407499790;1
6.240699768;-16.360700607;6.791200161;1
5.907299995;-16.103300095;7.120999813;1
7.103799820;-15.500000000;6.074800014;1
7.203599930;-15.749300003;5.972000122;1
6.263599873;-14.313799858;6.781099796;1
6.204500198;-16.420200348;7.012599945;1
5.813700199;-15.794899940;6.377699852;1
7.058700085;-14.754599571;6.870900154;1
7.321599960;-15.379899979;6.325300217;1
5.941599846;-16.341299057;6.789000034;1
6.425300121;-15.989899635;6.741799831;1
6.981900215;-16.199199677;5.444499969;1
6.131899834;-16.345100403;7.100299835;1
6.296199799;-15.373299599;5.523900032;1
6.612699986;-14.267200470;6.801799774;1
7.132999897;-15.380700111;6.216599941;1
7.375800133;-15.383500099;6.240600109;1
6.044199944;-13.658399582;6.688199997;1
4.867099762;-14.688599586;3.005700111;1
5.936900139;-15.914099693;3.661099911;1
5.706099987;-16.822799683;3.299099922;1
5.854300022;-15.509699821;3.639300108;1
5.974899769;-15.162799835;3.496000051;1
6.010700226;-15.319399834;3.524800062;1
5.642300129;-15.009499550;2.988399982;1
5.651899815;-16.514699936;3.280600071;1
6.174799919;-16.158700943;3.091399908;1
5.856599808;-16.703100204;3.556600094;1
7.006299973;-16.263000488;4.421999931;1
5.874400139;-16.774700165;3.774899960;1
5.339600086;-15.853899956;3.089400053;1
6.920000076;-16.080200195;3.112999916;1
6.125699997;-16.614299774;3.667999983;1
6.072899818;-16.703199387;3.825200081;1
5.716800213;-16.721500397;3.063600063;1
5.644999981;-16.524900436;3.601900101;1
5.837600231;-16.775600433;3.670300007;1
6.642099857;-16.137100220;3.076999903;1
8.857099533;-14.944000244;7.697899818;1
8.894800186;-15.308799744;7.624800205;1
8.593799591;-15.131799698;7.504099846;1
8.559800148;-15.141099930;7.620299816;1
8.138999939;-15.305600166;8.136500359;1
7.307600021;-13.785400391;7.644800186;1
7.941999912;-14.419599533;7.522699833;1
7.727799892;-15.475700378;7.320400238;1
8.548600197;-15.036299706;7.589200020;1
6.134500027;-16.386299133;8.114500046;1
6.258999825;-14.339500427;7.558100224;1
6.717000008;-14.617199898;7.653699875;1
7.612100124;-15.476900101;8.646400452;1
6.863699913;-15.221099854;8.457799911;1
6.224800110;-14.880000114;7.889100075;1
7.485199928;-14.938300133;7.764699936;1
7.608600140;-15.829999924;9.073100090;1
6.961599827;-15.752900124;8.261599541;1
7.277599812;-16.024299622;8.158200264;1
6.620200157;-14.326999664;7.335199833;1
7.148200035;-15.048500061;9.012900352;1
6.985499859;-14.883899689;8.745900154;1
7.628900051;-15.831500053;8.198300362;1
6.633600235;-16.206699371;7.403100014;1
7.588600159;-15.623700142;8.333800316;1
6.285500050;-13.734600067;7.118299961;1
8.468999863;-16.664600372;8.409799576;1
8.333999634;-16.340599060;8.560700417;1
8.376000404;-15.665200233;7.536499977;1
9.053899765;-16.757200241;7.792399883;1
8.642200470;-16.676099777;7.285099983;1
8.984499931;-17.545400620;9.500000000;1
8.582200050;-17.402399063;9.213299751;1
8.915300369;-17.605699539;8.750000000;1
9.497400284;-15.893099785;7.283699989;1
10.325699806;-16.115299225;7.549399853;1
10.477199554;-17.025499344;7.510000229;1
10.387999535;-16.799900055;7.734300137;1
8.152999878;-16.119100571;7.963900089;1
9.252499580;-16.520200729;7.954100132;1
9.241999626;-16.886400223;8.548999786;1
8.308099747;-16.438299179;7.916600227;1
9.004400253;-16.756000519;8.098600388;1
8.538000107;-15.896599770;7.387700081;1
8.463999748;-16.733299255;9.389699936;1
9.176899910;-17.739799500;7.338900089;1
10.314200401;-16.078500748;7.217800140;1
8.541099548;-16.343000412;7.813799858;1
8.358099937;-15.716899872;7.668000221;1
8.865300179;-17.545099258;9.182900429;1
8.878899574;-17.338800430;8.774800301;1
8.285599709;-15.795200348;7.606400013;1
8.456100464;-15.718999863;8.448200226;1
8.904999733;-17.623800278;9.128899574;1
9.163200378;-16.507099152;7.415500164;1
9.339400291;-16.156999588;8.182999611;1
8.264699936;-16.149499893;8.459199905;1
8.761699677;-16.621799469;7.315400124;1
9.610400200;-16.216899872;8.038700104;1
9.760499954;-16.085100174;8.002900124;1
9.656200409;-16.996599197;9.458700180;1
9.462100029;-16.283300400;7.914299965;1
8.454299927;-15.676899910;8.262399673;1
9.644700050;-16.121900558;7.910399914;1
7.803199768;-16.250299454;8.277899742;1
7.258900166;-17.136299133;8.941499710;1
6.653100014;-16.837099075;8.829600334;1
7.775000095;-16.308000565;9.152199745;1
