//X;Y;Z;Illuminance (PCV)
-2.237200022;1.360999942;5.597799778;1
-2.809600115;3.379699945;5.247300148;1
-2.496000051;4.188000202;4.817999840;1
-2.783099890;2.236200094;5.167699814;1
-1.584499955;6.124700069;6.569600105;1
-3.196199894;2.995399952;7.281099796;1
-3.837599993;1.958600044;7.143499851;1
-3.378000021;3.536799908;7.002600193;1
-3.687000036;6.158999920;4.091000080;1
-2.567199945;2.421099901;5.234600067;1
-4.340099812;6.881499767;4.105100155;1
0.337199986;6.070400238;7.069699764;1
-3.234600067;1.758900046;7.643300056;1
-2.720299959;2.576200008;5.402299881;1
-4.062500000;1.717900038;7.162399769;1
-3.632100105;2.757600069;6.801499844;1
-3.520999908;3.568700075;6.897900105;1
-2.862200022;2.598500013;5.484600067;1
-2.836199999;3.450200081;8.190400124;1
-4.503200054;4.421899796;5.500400066;1
-4.464900017;4.378900051;5.613800049;1
-3.140300035;5.903200150;3.493099928;1
-3.243900061;3.597100019;6.624199867;1
-0.847999990;-0.016000001;2.625000000;1
-3.600300074;2.173799992;7.197700024;1
-3.494299889;3.310400009;7.272600174;1
0.632399976;6.173900127;7.146100044;1
-3.397000074;3.250000000;7.268899918;1
-2.662499905;6.645100117;4.097000122;1
-3.867399931;5.742400169;3.411799908;1
-4.122600079;4.066800117;6.874499798;1
-2.930399895;3.808199883;6.998899937;1
-3.834599972;2.306999922;7.179100037;1
-3.640599966;2.079200029;7.158199787;1
-0.597500026;2.727099895;4.216899872;1
-2.161799908;2.281599998;5.109700203;1
-3.429100037;3.890599966;5.949800014;1
-2.622200012;1.615900040;5.731800079;1
-3.436300039;2.640100002;3.924099922;1
-2.899199963;2.611799955;5.207600117;1
-3.730000019;5.129000187;4.482999802;1
-0.968999982;1.873999953;4.934999943;1
-2.593499899;2.581300020;5.685599804;1
-1.332399964;3.704499960;8.947600365;1
-3.575999975;5.907999992;4.460000038;1
-1.677600026;6.147999763;4.945499897;1
-0.827000022;-0.209000006;2.749000072;1
-0.542999983;-0.523999989;3.045000076;1
-3.231800079;3.199899912;7.211999893;1
-3.835999966;5.796000004;4.295000076;1
-3.661999941;4.622000217;4.120999813;1
-2.706000090;3.467600107;5.204500198;1
-2.777299881;3.124300003;7.980899811;1
-3.993499994;5.771500111;3.225399971;1
-4.284999847;3.992000103;7.416999817;1
-2.407000065;5.179999828;7.239999771;1
-1.490000010;4.421999931;3.596999884;1
-2.421499968;1.291100025;5.748700142;1
-3.087800026;2.456599951;5.249899864;1
-3.120599985;1.478199959;5.522799969;1
-2.372999907;5.370999813;5.453000069;1
-2.961999893;2.296000004;7.671999931;1
-3.489700079;2.915299892;7.596199989;1
-3.035300016;2.348200083;5.279799938;1
-4.548999786;2.513600111;6.956799984;1
-2.034699917;3.004600048;7.064499855;1
-0.458000004;3.858000040;6.867000103;1
-1.907799959;4.336100101;8.435700417;1
-2.754699945;1.908699989;5.563499928;1
-0.542999983;3.549000025;6.730000019;1
-3.019000053;4.738200188;4.601200104;1
-1.210299969;0.000800000;3.071099997;1
-0.197899997;4.730999947;7.150599957;1
-4.179599762;4.611899853;6.817100048;1
-2.405100107;5.161200047;7.537000179;1
-3.078200102;1.454800010;5.649899960;1
1.067999959;3.586999893;5.177000046;1
-1.410500050;5.502200127;7.451099873;1
-3.419100046;2.713399887;6.130499840;1
-3.007400036;1.822600007;6.777800083;1
-3.842700005;2.564100027;7.236999989;1
-4.652800083;6.516300201;3.171000004;1
-0.916999996;2.772000074;4.828999996;1
-1.033499956;2.406599998;8.717800140;1
-2.461499929;1.378100038;5.787000179;1
-3.831500053;2.549000025;7.135200024;1
-1.366999984;4.370999813;4.745999813;1
-1.111500025;4.330599785;8.503100395;1
-3.510600090;6.173600197;4.431300163;1
-1.544700027;2.337800026;8.848099709;1
-0.812900007;3.769000053;7.800700188;1
-2.930900097;3.190799952;5.313300133;1
-0.219999999;-0.263000011;3.051000118;1
-3.378299952;2.700299978;7.231999874;1
-1.551699996;3.434799910;8.091099739;1
-1.446900010;6.083799839;7.051199913;1
-3.588200092;2.067300081;7.901599884;1
-2.681200027;2.349600077;5.238200188;1
-3.921700001;2.112699986;6.863800049;1
-2.667299986;2.694600105;5.702300072;1
-1.072999954;3.128999949;8.053000450;1
-3.284699917;2.486599922;7.282499790;1
-3.079400063;2.040100098;7.291999817;1
0.275099993;6.192800045;7.332300186;1
-2.929399967;3.621299982;7.187900066;1
-1.694000006;5.317999840;4.824299812;1
-3.539200068;2.502599955;4.596399784;1
-2.235300064;5.780499935;3.316900015;1
-1.205100060;-0.827499986;2.810400009;1
-1.948099971;4.042399883;5.212900162;1
-0.620999992;2.726000071;4.563000202;1
-0.169000000;5.881000042;6.988999844;1
-2.266000032;2.486999989;8.605999947;1
0.096199997;1.279999971;3.153899908;1
-0.941200018;4.919300079;3.237499952;1
-2.219599962;5.080699921;5.991799831;1
-0.949000001;0.004200000;2.610599995;1
-2.155999899;6.337999821;4.789000034;1
-2.929199934;2.503900051;5.484399796;1
-3.699599981;5.178500175;4.116199970;1
-3.897700071;5.284999847;3.491100073;1
-1.804999948;2.976999998;7.144999981;1
-1.984200001;5.003499985;7.652599812;1
1.448500037;2.966200113;4.725699902;1
-3.106400013;2.999300003;5.257800102;1
-2.827199936;3.377000093;5.141799927;1
-4.621699810;3.348999977;6.568699837;1
-2.474499941;7.562699795;3.206399918;1
-1.312999964;1.925999999;5.138999939;1
-4.494999886;2.566999912;5.918000221;1
-3.390799999;3.342299938;7.168399811;1
-3.095599890;2.970000029;7.294700146;1
-1.509999990;5.827000141;7.609000206;1
-3.021699905;2.365600109;5.080200195;1
-1.682000041;3.114000082;8.503000259;1
-3.640100002;6.852099895;4.503699780;1
-1.116999984;3.388999939;7.800000191;1
-3.651799917;2.510099888;7.227900028;1
-2.300899982;1.525500059;5.590899944;1
-0.494199991;3.578200102;6.219399929;1
-4.486499786;2.497299910;6.161099911;1
-1.268000007;3.348999977;8.600999832;1
0.029899999;4.515200138;7.216400146;1
-1.777999997;4.029300213;4.872200012;1
0.284000009;1.789999962;3.140000105;1
-1.079300046;5.531000137;7.105299950;1
-2.394799948;1.429499984;5.497900009;1
-2.316999912;1.275099993;5.294199944;1
-1.235000014;5.252999783;3.260999918;1
-1.901399970;1.521499991;7.152999878;1
-3.418299913;2.759900093;7.040100098;1
-3.104899883;3.002099991;6.277200222;1
-2.214799881;1.568500042;5.348299980;1
-3.819999933;5.707300186;3.310800076;1
-0.351999998;4.326000214;9.170000076;1
-3.607500076;2.803900003;7.250299931;1
-2.845900059;1.442999959;5.363900185;1
-0.978999972;-0.717000008;2.831000090;1
-2.707600117;1.729300022;5.708000183;1
-0.407000005;0.704999983;3.049999952;1
-0.985400021;5.164199829;3.443300009;1
-0.398499995;3.889800072;7.027299881;1
-2.559499979;1.853700042;4.939099789;1
-1.324399948;5.644999981;7.119200230;1
-0.580399990;-0.377700001;2.722800016;1
0.502699971;1.703199983;2.883100033;1
-2.624200106;3.636899948;5.200399876;1
-1.984200001;1.453299999;7.180600166;1
-4.419799805;1.071799994;4.027400017;1
-2.460999966;5.459000111;7.285999775;1
-3.676000118;6.538199902;3.942800045;1
-1.262199998;4.971899986;3.143399954;1
-2.460000038;5.702000141;5.328999996;1
-2.756799936;6.243100166;3.998800039;1
-2.939899921;2.566900015;4.434999943;1
-2.846499920;6.457799911;3.770400047;1
-2.236900091;1.234099984;5.509300232;1
-2.997699976;2.575400114;5.514900208;1
-1.156299949;5.072000027;5.752900124;1
-3.552999973;3.582000017;5.857699871;1
-2.502300024;1.546399951;5.566599846;1
0.238700002;5.316899776;7.550000191;1
-3.137200117;4.604499817;4.326700211;1
1.423699975;2.138099909;5.468699932;1
-3.843899965;2.332600117;7.029900074;1
-2.263499975;5.251699924;7.521699905;1
-2.467999935;5.185999870;4.584000111;1
-1.654999971;1.327999949;4.901000023;1
-1.370499969;2.215100050;8.464500427;1
-3.423599958;2.786900043;7.371399879;1
-1.679999948;5.237999916;7.479000092;1
-3.772000074;4.842000008;7.008999825;1
0.147499993;1.311100006;3.381200075;1
-2.618000031;3.486000061;5.090799809;1
-2.975399971;3.133100033;5.198800087;1
-1.871000051;5.797399998;2.878900051;1
-2.303499937;5.100999832;5.797100067;1
-0.935800016;2.072099924;8.293899536;1
-1.061800003;4.955500126;3.347500086;1
-2.618700027;1.096500039;5.111000061;1
-1.578799963;4.100200176;5.970699787;1
-3.586800098;3.332000017;7.230199814;1
-1.924399972;1.595299959;7.247799873;1
-1.894400001;4.718400002;4.004499912;1
-3.522500038;3.673099995;7.092299938;1
-2.754899979;6.964600086;3.064100027;1
-1.480000019;5.215400219;3.114900112;1
1.700600028;3.760799885;5.440700054;1
-3.351399899;2.135200024;7.004099846;1
-0.263999999;0.666999996;2.825000048;1
-2.142800093;4.607200146;6.152100086;1
1.389000058;3.914000034;5.182000160;1
-3.677200079;6.858099937;3.444000006;1
-4.313899994;4.082900047;7.171299934;1
-3.783099890;4.737199783;4.001999855;1
-3.276200056;3.080899954;7.136300087;1
-1.491700053;5.868100166;7.082200050;1
-4.271299839;4.146900177;7.317699909;1
-0.720000029;2.812999964;3.844000101;1
-3.576299906;3.707299948;6.710899830;1
-2.552200079;2.695300102;5.645299911;1
-1.214900017;-0.953599989;2.577199936;1
-2.480400085;2.460999966;5.620200157;1
-4.276400089;6.583799839;3.064899921;1
1.594099998;3.908799887;5.530200005;1
-2.113899946;3.243200064;7.589600086;1
-1.026000023;3.463000059;8.114000320;1
-1.248900056;5.360799789;7.337900162;1
-3.764400005;2.652199984;7.096399784;1
-2.854399920;3.569099903;7.128699780;1
-1.430799961;4.945199966;3.720799923;1
-3.858099937;2.367399931;7.281799793;1
0.052999999;5.269000053;7.019999981;1
-3.265599966;2.941200018;7.043000221;1
-3.853899956;4.720099926;3.669300079;1
-3.054600000;4.496600151;4.803599834;1
-1.700000048;4.447000027;3.447999954;1
-3.518199921;2.904599905;7.124100208;1
-2.695699930;6.585899830;3.289200068;1
-1.544000030;4.225999832;8.222000122;1
-2.308099985;2.813199997;8.651300430;1
-4.047599792;6.779900074;2.991300106;1
-2.298899889;4.984899998;5.720300198;1
-2.110199928;1.226600051;5.362500191;1
-1.157999992;4.977000237;5.625000000;1
-3.189100027;4.778399944;7.804200172;1
-0.227899998;4.672699928;7.431000233;1
-1.741799951;5.059999943;5.848400116;1
-1.625000000;5.032499790;3.096999884;1
-2.544899940;4.935699940;6.775300026;1
-1.740700006;5.683599949;7.438600063;1
-3.404000044;5.642000198;4.070000172;1
-3.374700069;3.199199915;7.067200184;1
-2.759299994;2.494400024;5.198800087;1
-0.535399973;4.743899822;3.581300020;1
-0.938000023;-0.388000011;3.042000055;1
-3.100800037;7.028500080;4.222300053;1
-2.035900116;5.549900055;7.535600185;1
-2.407999992;1.407999992;5.228000164;1
-1.524000049;1.315999985;4.522999763;1
-1.942999959;2.687400103;8.673600197;1
-2.671999931;5.277999878;4.843999863;1
-1.060400009;2.948100090;7.597000122;1
-4.013000011;1.215999961;4.702000141;1
-3.739900112;1.755100012;7.296199799;1
-3.983999968;4.923999786;3.585700035;1
-1.858000040;6.347000122;4.945000172;1
-3.598200083;2.313600063;7.903600216;1
-4.190800190;4.756299973;5.822700024;1
-1.452000022;5.241000175;3.311000109;1
0.142399997;5.535999775;7.701900005;1
-3.888999939;2.953999996;3.970000029;1
-0.797399998;3.945199966;8.429200172;1
-4.182700157;7.024300098;4.000899792;1
-1.789100051;4.900700092;5.845799923;1
-4.158899784;6.122000217;3.902400017;1
-3.037499905;2.458100080;5.556399822;1
-4.002399921;7.039400101;3.389499903;1
-3.660300016;1.933300018;7.184100151;1
-3.745699883;2.115600109;7.268599987;1
-2.480400085;6.972400188;4.582099915;1
-3.796700001;3.017499924;7.147200108;1
-1.251000047;4.888999939;3.009999990;1
-3.749799967;6.480700016;3.453500032;1
-0.324999988;3.697000027;6.564000130;1
-3.632299900;3.878400087;5.493299961;1
-3.084300041;1.713899970;7.101900101;1
-3.187999964;5.342999935;4.828000069;1
-2.817600012;6.880000114;3.018899918;1
-0.975899994;6.345099926;3.795200109;1
-2.172399998;1.430500031;5.399799824;1
-1.009899974;6.451000214;4.344299793;1
-3.836299896;5.034299850;4.308499813;1
-3.790999889;5.355700016;4.478899956;1
-1.199499965;3.276900053;7.812300205;1
-2.381099939;3.820400000;7.831699848;1
-1.236700058;5.014800072;3.439800024;1
-3.616199970;5.587299824;3.149899960;1
-0.159999996;3.994999886;6.778999805;1
-1.125499964;3.612400055;8.968700409;1
-0.172999993;5.089000225;6.663000107;1
-0.811600029;4.433300018;8.179800034;1
-0.347999990;6.554999828;5.309999943;1
-2.003999949;6.546400070;4.856200218;1
-2.191200018;1.377400041;4.488200188;1
-4.032100201;6.344099998;4.258399963;1
-1.391000032;4.465000153;6.334000111;1
-0.357600003;4.536600113;7.426300049;1
-1.161999941;5.040999889;3.582999945;1
-0.685999990;3.904000044;6.678999901;1
-0.348399997;0.236399993;2.802099943;1
-1.568799973;6.125500202;6.826200008;1
-3.121000051;3.776000023;6.491000175;1
-1.085000038;2.760699987;8.047699928;1
-1.228999972;4.612999916;8.382200241;1
-1.685400009;5.467199802;7.663000107;1
-4.013999939;1.180999994;4.230999947;1
-3.351099968;2.209500074;7.951600075;1
-1.113800049;3.981699944;7.729400158;1
-2.074800014;3.195100069;8.583999634;1
-2.470999956;4.489999771;5.065000057;1
0.930100024;1.420199990;2.970799923;1
-0.857999980;3.013000011;8.633000374;1
-2.845999956;4.842000008;7.532999992;1
-3.094700098;2.614799976;5.177400112;1
-0.917999983;5.933000088;7.248000145;1
-2.539000034;5.598000050;2.986000061;1
-0.677999973;5.597499847;5.529600143;1
-1.213899970;2.325799942;5.296500206;1
-3.169100046;5.285600185;5.290400028;1
-3.200900078;3.750299931;6.810100079;1
0.008000000;3.548000097;7.278999805;1
-4.107200146;4.537499905;6.817500114;1
-2.805999994;1.956599951;7.599199772;1
-1.434000015;1.934299946;7.497900009;1
-0.068999998;6.261000156;7.190000057;1
-0.521099985;3.082499981;8.380399704;1
-4.247000217;4.040999889;7.508999825;1
-3.558300018;2.622900009;4.638000011;1
-1.376999974;5.129000187;5.870999813;1
-1.787999988;1.024999976;4.877999783;1
-0.824000001;5.122000217;8.730999947;1
-2.750200033;1.807100058;5.516099930;1
-3.605000019;5.189899921;4.535200119;1
-0.710500002;2.383500099;4.701499939;1
-2.808599949;3.541599989;7.487599850;1
-3.436800003;4.580500126;4.297100067;1
0.149499997;5.568099976;7.392899990;1
-0.950500011;5.890399933;4.222099781;1
-2.110199928;5.300199986;4.669799805;1
-1.277500033;3.112200022;7.252799988;1
-1.661299944;6.037799835;4.488999844;1
-3.917999983;4.971000195;5.498000145;1
-3.452899933;2.450799942;4.435800076;1
-1.853999972;4.005099773;5.864299774;1
-0.783100009;0.304600000;2.883100033;1
-2.644099951;3.364799976;5.363699913;1
-0.882200003;5.961900234;4.286799908;1
-0.716000021;3.576999903;8.463000298;1
-1.695400000;2.938199997;8.371100426;1
-3.571300030;3.426000118;7.142000198;1
-1.303900003;3.086699963;7.453899860;1
-1.781800032;5.527200222;6.095099926;1
-3.472899914;3.815799952;6.958199978;1
-3.735699892;2.425899982;7.142199993;1
-1.245100021;6.216499805;4.668700218;1
-1.801599979;4.948999882;7.694799900;1
-1.922199965;3.181200027;8.639800072;1
-3.543499947;6.148499966;3.734999895;1
-3.264899969;2.360899925;5.147699833;1
-1.537500024;1.980100036;7.825799942;1
-2.807899952;1.607900023;5.638800144;1
-1.677600026;5.624000072;8.075400352;1
-2.277400017;4.954500198;7.676099777;1
-3.843199968;2.493799925;6.889599800;1
-3.872400045;5.444799900;3.822099924;1
-3.814500093;6.844699860;3.852299929;1
-1.566599965;2.249399900;8.134300232;1
-2.299000025;6.809000015;4.638999939;1
-3.113899946;3.063600063;7.072500229;1
-2.515500069;2.442500114;5.481100082;1
-3.552999973;2.516999960;7.081999779;1
-2.213999987;4.855000019;6.747000217;1
-4.202000141;6.405900002;4.384099960;1
-2.362999916;3.999000072;8.420000076;1
-3.608999968;3.314599991;6.793399811;1
-1.509299994;5.708199978;4.526800156;1
-3.574100018;3.497499943;6.665500164;1
-1.457999945;5.412000179;7.147699833;1
-3.631000042;1.882900000;7.434999943;1
-0.039500002;3.956099987;6.866600037;1
-1.564499974;6.901299953;4.156799793;1
0.633000016;1.613999963;3.433000088;1
-0.215700001;-0.471399993;2.900199890;1
-4.130300045;7.121099949;3.197700024;1
-3.832799911;3.060699940;7.414899826;1
-2.676800013;2.667799950;5.448800087;1
1.378000021;2.851000071;5.247000217;1
-1.559200048;3.765500069;7.510399818;1
-3.923199892;2.155499935;7.223100185;1
-0.114699997;3.243299961;7.472899914;1
0.982500017;2.384099960;5.555300236;1
-3.798500061;2.033099890;7.073800087;1
-1.060999990;2.844000101;4.894000053;1
-0.984000027;3.973999977;7.035999775;1
-3.941400051;6.931399822;4.153200150;1
-0.297899991;3.575299978;6.824900150;1
-0.317000002;5.822000027;7.195000172;1
-3.900000095;6.811800003;3.767899990;1
-0.149299994;1.306800008;2.793900013;1
-4.059000015;5.673999786;3.979000092;1
-3.371099949;2.983200073;7.306399822;1
-3.418600082;3.608900070;6.608699799;1
-2.879800081;6.361599922;3.643300056;1
-3.350199938;4.526400089;4.620800018;1
-2.411200047;1.281599998;5.535799980;1
-1.718999982;5.534999847;7.868999958;1
-0.074400000;-0.270300001;2.517499924;1
-3.723999977;5.769999981;4.177999973;1
-4.308000088;0.962300003;4.137499809;1
-0.269100010;3.571700096;6.665999889;1
-1.899000049;5.923999786;2.671000004;1
-1.562100053;1.743100047;6.902500153;1
-3.485699892;4.317299843;7.251500130;1
-2.108200073;2.634399891;8.591500282;1
-4.447199821;1.261500001;4.288199902;1
-4.188399792;1.702100039;4.543099880;1
-3.159399986;4.877999783;4.691800117;1
-4.319399834;1.202499986;4.117199898;1
-0.991500020;0.469000012;2.783699989;1
0.418000013;5.791999817;7.684000015;1
-4.461200237;1.178799987;4.064400196;1
-3.675400019;5.478700161;3.976500034;1
-4.291200161;1.506700039;3.942300081;1
-0.014000000;-0.606999993;2.819000006;1
-1.519000053;5.122000217;7.454999924;1
-1.093000054;2.971999884;4.607999802;1
-1.296000004;4.493000031;5.486000061;1
-4.256800175;1.402500033;4.562900066;1
-4.242000103;2.323999882;6.429999828;1
-3.881000042;3.327800035;3.795399904;1
-4.335400105;3.257699966;6.466599941;1
-4.249199867;1.032600045;4.182400227;1
-3.837699890;3.203399897;7.261400223;1
-0.662000000;0.393999994;2.857000113;1
1.993000031;2.941999912;5.484000206;1
-0.739899993;0.450500011;3.198400021;1
-3.626100063;2.491699934;7.744599819;1
-0.647199988;-0.567799985;2.913599968;1
-2.890700102;5.419499874;5.080200195;1
-2.247800112;5.464399815;7.506100178;1
-0.946900010;2.888099909;8.595499992;1
-0.189999998;0.109999999;2.980000019;1
-1.532899976;4.485400200;6.455200195;1
1.450000048;2.650000095;5.839300156;1
-0.689000010;-0.698000014;2.576999903;1
-3.752199888;6.560299873;4.194799900;1
-3.620500088;3.432100058;6.254799843;1
0.773000002;5.538000107;7.611999989;1
-0.048900001;5.415800095;7.309400082;1
-4.379499912;3.084100008;6.313799858;1
-4.154200077;1.619699955;4.415599823;1
-2.450900078;5.663300037;2.976500034;1
-0.293500006;3.891499996;6.922900200;1
-0.332399994;4.877900124;7.158800125;1
-0.547999978;4.186999798;8.977000237;1
-1.598399997;5.785999775;4.929399967;1
-1.706400037;2.463500023;8.509699821;1
-2.429300070;5.428800106;5.132999897;1
-4.136700153;1.669299960;4.095099926;1
-2.533400059;3.750999928;8.111200333;1
-4.268599987;1.447399974;4.130700111;1
0.391999990;1.730000019;3.193000078;1
-3.682499886;4.665800095;4.742899895;1
-2.160700083;2.762599945;8.931699753;1
-2.357399940;4.297900200;4.468599796;1
-1.866000056;5.846000195;5.734000206;1
-0.078699999;4.871799946;7.371500015;1
-0.642000020;4.645999908;8.685999870;1
-1.498700023;3.532099962;7.709400177;1
-1.062600017;5.413899899;6.798699856;1
-4.422500134;1.166800022;4.369400024;1
-1.396600008;1.633299947;5.153500080;1
-0.763000011;4.972000122;8.593999863;1
-3.465500116;2.327300072;5.055900097;1
-1.532999992;2.971999884;7.586999893;1
-1.286999941;3.226999998;8.548000336;1
0.925300002;2.634000063;5.123000145;1
-2.507999897;4.407999992;5.018000126;1
-1.234300017;1.980900049;5.211699963;1
-2.716399908;3.016599894;8.098999977;1
-0.645299971;5.940499783;5.464399815;1
-0.797599971;4.890900135;2.905600071;1
-3.118099928;2.772500038;7.387800217;1
-3.285000086;4.481999874;5.902999878;1
-0.944000006;2.944000006;4.344999790;1
-3.223200083;5.364099979;5.210499763;1
-1.806800008;2.139699936;7.900100231;1
-0.084700003;5.712399960;7.332099915;1
-1.271999955;5.995999813;3.938999891;1
-2.509000063;6.622000217;3.943000078;1
-4.487599850;1.132400036;4.198500156;1
-2.680000067;3.424999952;7.706999779;1
-2.553200006;3.999799967;8.367400169;1
-2.569600105;5.361299992;2.909300089;1
-0.923500001;2.926000118;7.826900005;1
0.741100013;5.506599903;7.479100227;1
0.953000009;1.498000026;3.160000086;1
0.145099998;0.170100003;2.713299990;1
-3.571799994;5.512400150;5.015299797;1
-0.852400005;3.914000034;8.599800110;1
-4.247900009;3.416899920;6.624300003;1
-1.815999985;6.598000050;5.138999939;1
-3.074700117;2.995500088;7.413400173;1
0.399399996;5.614200115;7.619400024;1
-2.269200087;4.705399990;4.973100185;1
-1.739300013;5.784800053;6.416200161;1
-3.343800068;1.979699969;7.925099850;1
-1.779000044;5.805399895;4.865699768;1
-4.262499809;1.292899966;4.352200031;1
-4.360400200;1.351300001;4.358900070;1
-2.616600037;4.819099903;5.164999962;1
1.812999964;3.628999949;5.525000095;1
-3.460999966;1.911999941;7.763000011;1
0.079999998;4.643000126;7.201000214;1
-4.529600143;6.268499851;3.471199989;1
0.518000007;5.548999786;7.567999840;1
-3.176800013;2.709899902;7.451300144;1
-2.923300028;6.695499897;3.116800070;1
-4.238399982;1.601799965;4.305200100;1
-3.533299923;2.527499914;8.071499825;1
-3.286999941;6.697999954;4.679999828;1
-4.338399887;1.648100019;3.893100023;1
-0.981100023;5.548399925;7.333700180;1
-4.543000221;3.217999935;5.789999962;1
-1.666000009;2.752000093;8.881999969;1
-4.204599857;1.433899999;4.643499851;1
-2.925499916;6.415299892;3.844000101;1
-0.885100007;3.877000093;8.954899788;1
-2.433000088;6.830999851;4.475999832;1
-2.790999889;3.670000076;7.317999840;1
-4.149600029;4.108500004;7.612800121;1
-0.351999998;3.576999903;7.004000187;1
0.024000000;5.264999866;5.433000088;1
-2.630899906;7.764500141;3.186700106;1
-4.222300053;1.609200001;4.109600067;1
-1.063799977;1.898200035;8.193699837;1
-3.129400015;4.804299831;5.104199886;1
-2.085400105;1.677199960;4.892099857;1
-2.187000036;5.505000114;4.907999992;1
-1.207100034;2.571899891;5.278200150;1
-2.406199932;1.206799984;5.150100231;1
-1.460700035;3.128200054;7.078100204;1
0.110200003;5.755000114;7.376999855;1
-2.154900074;6.879300117;3.054800034;1
-1.535799980;5.712100029;4.358200073;1
-2.345599890;6.454199791;4.433499813;1
-4.145999908;6.381999969;3.628099918;1
-0.971199989;3.475899935;8.708800316;1
-2.209800005;4.242899895;4.600599766;1
-1.341699958;3.118099928;6.276500225;1
-2.001600027;3.138600111;8.066599846;1
-4.034399986;6.377200127;4.357500076;1
-2.191999912;6.833000183;4.875999928;1
-3.631099939;7.032199860;4.576000214;1
-3.607800007;6.129000187;4.208899975;1
-1.532600045;4.801799774;4.890900135;1
-3.563100100;6.515900135;4.609300137;1
-1.011000037;0.090999998;2.696000099;1
0.079599999;5.506400108;7.460100174;1
0.094700001;5.550799847;7.816599846;1
-3.362699986;6.802599907;4.531199932;1
-3.154000044;6.881499767;4.540800095;1
-3.407000065;6.769999981;4.658999920;1
-1.778100014;5.780600071;3.234100103;1
-2.800800085;2.210799932;3.213599920;1
-1.277799964;2.030699968;4.785299778;1
-0.504000008;3.418999910;8.668999672;1
-2.381700039;4.082600117;7.979199886;1
-1.299000025;2.345999956;8.401000023;1
-4.254199982;1.598999977;4.449800014;1
-3.521699905;5.337399960;5.052800179;1
-0.225999996;6.361000061;5.497000217;1
-4.408299923;6.726799965;3.847100019;1
-0.187000006;6.469999790;5.510000229;1
-0.067100003;5.072199821;7.156400204;1
-3.723700047;7.138400078;3.186899900;1
-2.448499918;6.640100002;4.742000103;1
-2.232000113;6.793000221;4.965000153;1
-4.441800117;6.444799900;2.898900032;1
-3.830399990;3.426800013;4.084000111;1
1.254400015;3.741699934;5.395199776;1
-3.870699883;2.789099932;4.121099949;1
-0.397700012;0.980000019;3.125799894;1
-3.923799992;3.181099892;3.993400097;1
-1.277999997;2.934000015;9.008999825;1
-3.767299891;3.146399975;3.583300114;1
-1.001600027;3.946000099;8.891200066;1
-3.822999954;5.041999817;5.433000088;1
-2.003799915;2.283999920;7.898900032;1
-0.847199976;3.486000061;7.206099987;1
1.562999964;2.358000040;5.777999878;1
-1.352900028;2.301000118;8.803899765;1
-0.969299972;2.750400066;8.542900085;1
-2.703999996;2.990000010;7.434000015;1
-3.964299917;7.117499828;3.108900070;1
-0.289999992;5.352000237;5.223999977;1
-1.445700049;2.245399952;7.739999771;1
-3.819600105;3.291599989;3.664499998;1
-2.453999996;6.500000000;4.460999966;1
-0.794099987;4.885499954;6.802400112;1
-1.993000031;3.769999981;7.811999798;1
-1.310700059;3.595499992;9.069100380;1
-4.030600071;5.340099812;4.212100029;1
-2.904000044;3.280100107;7.351299763;1
-4.002900124;3.126499891;4.295199871;1
-1.345000029;2.512000084;5.245999813;1
-1.075000048;5.045000076;4.489999771;1
-1.362499952;5.555900097;6.681700230;1
-1.605100036;4.274199963;4.461800098;1
-2.218400002;5.724899769;7.885300159;1
-3.125600100;3.181699991;7.843900204;1
-2.575000048;5.508999825;3.082000017;1
-1.827900052;5.564199924;6.727000237;1
-1.772300005;1.900200009;6.777800083;1
1.680400014;2.086999893;5.593599796;1
-3.917999983;2.902800083;4.141399860;1
-0.800000012;2.921299934;4.688199997;1
-1.974699974;1.903900027;4.820600033;1
-1.539299965;6.121600151;6.259699821;1
-3.851300001;4.335700035;5.815499783;1
-2.161999941;5.195700169;7.624300003;1
-0.716499984;4.519800186;8.730400085;1
-2.294100046;3.547300100;7.383800030;1
-2.993499994;4.776999950;5.084799767;1
-1.539999962;4.206999779;6.046000004;1
-3.724100113;3.040800095;4.044099808;1
-1.497300029;5.693799973;7.738500118;1
-3.648499966;3.356600046;3.983500004;1
-0.443399996;3.714099884;8.827799797;1
-1.513399959;1.724099994;7.476600170;1
-0.610000014;4.539000034;8.618000031;1
-1.578999996;4.298999786;6.149000168;1
-3.787800074;4.583099842;4.370100021;1
-3.932499886;3.178999901;4.195199966;1
-1.277799964;2.232199907;4.823500156;1
-1.344799995;2.223400116;8.261300087;1
-4.083799839;5.001100063;6.882599831;1
-3.380000114;6.598999977;4.609000206;1
-3.905800104;3.098900080;3.935499907;1
-3.737400055;4.298299789;6.029399872;1
-1.680600047;3.475199938;8.752699852;1
-4.053899765;5.716000080;3.548599958;1
-1.699300051;5.682400227;7.531000137;1
-3.181999922;3.332000017;6.659999847;1
-3.792200089;1.921700001;7.784299850;1
-3.872600079;3.486000061;3.975100040;1
-1.470999956;3.187000036;7.564000130;1
-3.585400105;4.853099823;7.419099808;1
-3.741899967;1.731500030;7.501399994;1
-1.710000038;1.108999968;4.875000000;1
-1.764600039;1.434999943;4.428800106;1
-2.731600046;5.143599987;5.031799793;1
-0.653500021;4.070199966;9.176600456;1
-2.979099989;2.977799892;7.566699982;1
-3.796000004;0.669000030;4.343999863;1
-1.461699963;5.042500019;3.214699984;1
-3.282200098;6.734099865;4.429900169;1
-2.744100094;6.770800114;2.889699936;1
-3.344000101;1.877599955;7.021399975;1
-1.703299999;5.449299812;6.549900055;1
-2.690999985;6.500999928;3.736999989;1
-3.717400074;3.699199915;7.075900078;1
1.242599964;2.347300053;5.315899849;1
0.268000007;1.654000044;3.361000061;1
-4.092999935;5.424300194;3.939800024;1
-0.318100005;3.437700033;6.523799896;1
-2.345400095;6.324399948;3.262500048;1
-3.907999992;2.997800112;4.363100052;1
-4.471799850;1.550899982;4.167200089;1
-4.395999908;3.694299936;6.630400181;1
-1.776999950;6.021999836;4.190999985;1
-0.906000018;5.151000023;2.954999924;1
-0.939000010;3.197999954;8.815999985;1
-1.631999969;4.352600098;3.468800068;1
-0.154400006;5.954899788;7.288599968;1
-3.077399969;1.717300057;7.718800068;1
-3.808799982;2.506299973;7.685800076;1
-3.731300116;1.832700014;7.358799934;1
-3.562200069;1.689800024;7.491700172;1
-0.184699997;3.706500053;6.933599949;1
-3.930000067;2.376199961;7.559999943;1
-3.401999950;2.141599894;8.041199684;1
-4.118999958;1.021000028;3.987999916;1
-3.030900002;3.367199898;7.575200081;1
-3.672100067;2.118499994;7.770800114;1
-3.791599989;1.878999949;7.429399967;1
-0.870500028;4.367599964;8.826399803;1
-3.612299919;1.848999977;7.665200233;1
-3.205899954;2.305999994;7.835999966;1
-3.815900087;2.241600037;7.541399956;1
-3.529200077;2.079200029;7.805399895;1
-1.689399958;6.030000210;4.597199917;1
-3.946500063;2.363300085;7.794600010;1
-3.471299887;1.901000023;7.499100208;1
-3.425600052;2.157099962;7.823500156;1
-3.096299887;2.158799887;7.669199944;1
-0.261999995;1.149000049;3.013999939;1
-1.772699952;2.029500008;7.999000072;1
-1.334699988;3.858599901;7.117000103;1
-3.810899973;1.884600043;7.633999825;1
-2.549799919;3.451400042;8.398699760;1
-0.921700001;3.313299894;8.362299919;1
-3.170000076;1.933699965;7.776299953;1
-1.991199970;3.160300016;7.558000088;1
-2.370699883;2.971600056;8.611399651;1
-2.908099890;3.056299925;7.544099808;1
-1.825099945;4.099699974;8.464500427;1
-2.463999987;7.585999966;3.325999975;1
-2.051899910;3.165999889;7.766499996;1
-3.444099903;3.091000080;7.513000011;1
-3.971999884;7.202400208;3.192600012;1
-3.689500093;2.450700045;7.959899902;1
-1.195999980;1.473000050;4.903999805;1
-2.025799990;3.312400103;8.670100212;1
-3.867199898;1.626999974;7.506400108;1
-1.830199957;4.198999882;5.053699970;1
-4.314000130;3.305000067;6.276999950;1
-3.588099957;1.777199984;7.544499874;1
-3.210099936;1.940799952;7.678299904;1
-3.767499924;2.868799925;7.531499863;1
-3.997999907;3.234999895;3.809000015;1
-4.606699944;4.396699905;6.953000069;1
-3.845999956;2.587300062;7.637199879;1
-3.845599890;6.556900024;4.487500191;1
-1.908499956;4.074699879;4.889400005;1
-1.831900001;2.369199991;7.798799992;1
-2.352699995;2.536099911;8.430000305;1
-2.200200081;4.243999958;5.009500027;1
-1.805799961;5.451099873;5.456399918;1
-4.105999947;6.030700207;4.026000023;1
-1.195299983;2.488199949;8.834799767;1
-3.903599977;2.600500107;7.840799809;1
-2.830899954;3.555399895;7.366300106;1
-3.846199989;5.030900002;4.832200050;1
-3.538000107;6.618000031;4.063000202;1
0.023399999;5.260300159;7.441599846;1
-3.262700081;3.146600008;7.982299805;1
-1.636299968;1.534700036;4.837299824;1
-1.082299948;2.246799946;4.999199867;1
-3.864700079;2.326499939;7.501500130;1
-3.634200096;4.597099781;3.967499971;1
-4.365499973;2.383399963;6.360599995;1
-1.361500025;2.427500010;5.362100124;1
-2.894700050;3.557100058;8.104900360;1
-3.124700069;3.362699986;7.406700134;1
-3.041100025;6.095900059;2.730400085;1
-1.836400032;3.298300028;7.666900158;1
-2.609299898;3.604899883;8.223699570;1
-3.863600016;1.967900038;7.730000019;1
-1.519299984;6.672399998;4.103099823;1
-2.594599962;4.699800014;4.560100079;1
-4.538400173;3.312299967;6.437200069;1
-3.199599981;3.278100014;7.893499851;1
-3.015799999;2.111500025;7.323100090;1
1.370000005;3.474100113;5.572000027;1
-2.922399998;3.036900043;8.034899712;1
-2.215199947;3.796900034;8.533399582;1
-3.203000069;3.376699924;8.189900398;1
-3.343800068;2.273000002;7.698200226;1
-3.723299980;1.716199994;7.638599873;1
-3.225500107;3.418600082;7.623300076;1
-2.507999897;5.566999912;2.674999952;1
-3.368599892;3.228100061;7.395599842;1
-2.544899940;6.594099998;4.133100033;1
-3.236900091;2.926300049;7.549799919;1
-3.431499958;3.386499882;6.921100140;1
-3.858200073;6.658500195;3.960099936;1
-2.348999977;2.358000040;8.483099937;1
-2.727299929;2.067800045;7.711699963;1
-3.022900105;3.451900005;8.216099739;1
-2.341200113;2.615700006;8.803700447;1
-3.304500103;2.626300097;7.773799896;1
-2.386399984;5.390500069;5.557400227;1
-3.273600101;2.127500057;7.800399780;1
-3.866300106;2.322200060;7.644499779;1
-3.776400089;2.029099941;7.866700172;1
-3.652299881;2.187099934;7.548500061;1
-2.256500006;7.430600166;3.181600094;1
-2.851000071;3.625999928;6.431000233;1
0.004000000;5.385000229;6.965000153;1
0.388999999;5.127999783;7.096000195;1
0.106500000;5.422699928;7.403299809;1
-3.586499929;1.620900035;7.561800003;1
-1.702800035;3.278899908;7.726200104;1
-4.577300072;4.399099827;7.131999969;1
-0.472999990;5.149000168;6.712999821;1
-3.752700090;1.978199959;7.647999763;1
-3.039200068;1.984599948;7.761000156;1
1.090199947;3.587800026;5.367099762;1
-3.285700083;4.907999992;4.772500038;1
-0.419999987;3.835000038;9.048999786;1
-1.580800056;3.325999975;7.694699764;1
-3.109800100;4.266099930;4.533800125;1
-0.527400017;4.846899986;7.287000179;1
-2.987799883;3.403500080;7.979700089;1
-3.773499966;3.026999950;7.625000000;1
-0.068999998;4.087999821;8.762000084;1
-4.282299995;4.622000217;5.582699776;1
-2.215300083;4.458700180;4.470399857;1
-2.967600107;2.117899895;7.514400005;1
-2.938899994;5.922399998;2.986500025;1
-3.158099890;2.986700058;7.481200218;1
-1.908200026;6.948200226;3.226399899;1
-2.259599924;3.186199903;8.789400101;1
-1.625000000;3.572599888;7.441299915;1
-2.544300079;5.258100033;7.399499893;1
-3.245800018;2.072200060;7.421800137;1
-3.016200066;3.677299976;8.191200256;1
-2.921600103;2.660500050;7.372000217;1
-3.677099943;1.947100043;7.812900066;1
-2.937099934;2.035000086;7.822700024;1
-2.510299921;1.276299953;5.447800159;1
-3.973000050;5.076000214;6.835000038;1
-1.532299995;1.885400057;7.493100166;1
-2.078700066;2.746700048;8.816300392;1
-2.262599945;6.890999794;3.071399927;1
-0.905499995;3.781199932;6.297699928;1
-0.398999989;5.750999928;5.394000053;1
-1.822000027;4.348000050;8.151000023;1
-3.008800030;3.282999992;7.415400028;1
-2.306999922;4.922999859;4.570000172;1
-2.991300106;2.883599997;7.612199783;1
1.891199946;2.933199883;5.468699932;1
-0.568300009;6.444200039;5.515600204;1
-3.408699989;2.343600035;7.824800014;1
-3.899199963;2.518899918;7.755499840;1
-0.442000002;6.352000237;5.489999771;1
-3.544399977;2.427099943;8.105699539;1
-2.544399977;6.175000191;4.130199909;1
-1.641999960;4.335000038;8.553999901;1
-1.656900048;1.962200046;7.997300148;1
-3.924299955;6.928999901;2.712500095;1
-1.598000050;5.084000111;7.677999973;1
-1.736999989;3.251499891;7.626200199;1
-3.177500010;3.476900101;7.689899921;1
-1.417099953;5.125199795;2.969599962;1
-4.029799938;4.634300232;3.501800060;1
-2.985399961;2.288300037;7.423699856;1
-1.217200041;4.745600224;3.226099968;1
-2.524699926;2.923399925;8.634099960;1
-3.239700079;2.222800016;7.653999805;1
-3.239500046;3.181900024;7.620900154;1
-2.539900064;5.330100060;5.289199829;1
-2.827800035;5.708600044;6.941400051;1
-1.854200006;3.350399971;8.422800064;1
-1.692399979;2.570600033;8.516699791;1
-3.469899893;6.423099995;4.004199982;1
-1.031999946;3.775000095;7.961999893;1
-2.174400091;6.512400150;4.936200142;1
-3.463099957;3.038000107;7.611299992;1
-2.386800051;2.532200098;8.717100143;1
-2.927400112;3.582400084;7.493899822;1
-1.948699951;2.771600008;8.823800087;1
-1.343199968;3.680599928;7.725999832;1
-0.782199979;3.845299959;8.790399551;1
-0.906000018;-0.963999987;2.648000002;1
-0.323799998;5.250699997;5.352000237;1
-3.096100092;3.398699999;7.975800037;1
-2.119400024;3.344300032;7.476699829;1
-2.895100117;3.429399967;7.633200169;1
-1.700899959;2.226900101;7.811699867;1
-2.316299915;4.297200203;8.811699867;1
-3.170500040;3.444900036;7.908999920;1
-3.864700079;1.805999994;7.391200066;1
-2.914000034;2.226000071;3.750999928;1
-1.511199951;5.419799805;7.328199863;1
-1.394000053;4.505000114;8.741999626;1
-3.115700006;3.356899977;7.723999977;1
-1.549800038;3.565099955;7.811299801;1
-2.953399897;3.393399954;8.110600471;1
-2.701100111;4.353400230;4.697599888;1
-2.542599916;2.645400047;3.853399992;1
-1.311100006;4.753399849;8.565899849;1
-3.141999960;4.513000011;7.709000111;1
-1.066799998;6.034200191;6.873199940;1
-2.131799936;3.288100004;8.424099922;1
-1.181900024;5.852000237;6.854199886;1
-1.966500044;6.430300236;4.886499882;1
-3.613300085;2.573699951;7.325300217;1
-3.390799999;2.037800074;8.036000252;1
-3.862900019;2.237900019;7.447100163;1
-1.996999979;6.514999866;4.964000225;1
-1.932899952;1.924299955;7.621099949;1
1.643000007;3.698999882;5.278999805;1
-2.128499985;2.954600096;8.852899551;1
-2.885299921;3.199300051;7.895500183;1
-3.579900026;2.191499949;7.742599964;1
-3.451499939;1.813099980;7.197199821;1
-3.604500055;2.987699986;3.854300022;1
-3.662699938;1.963199973;7.329199791;1
-3.030999899;1.758399963;7.799300194;1
-3.451999903;2.150099993;7.942900181;1
-1.872900009;1.971799970;7.555900097;1
-4.122700214;4.605100155;5.458099842;1
-3.733900070;3.294600010;4.123400211;1
-3.579499960;6.487699986;3.719399929;1
-1.663900018;3.050699949;7.202799797;1
-3.750400066;2.027800083;7.397200108;1
-1.735599995;2.526099920;8.396300316;1
-3.643300056;5.589700222;4.199200153;1
-3.389699936;6.819300175;4.400000095;1
-2.816099882;3.003200054;8.026499748;1
-2.857000113;2.296000004;5.260000229;1
1.484400034;2.801100016;4.933100224;1
-3.131999969;3.274199963;8.115400314;1
-4.474999905;1.198500037;3.953200102;1
-2.154999971;6.260000229;3.871999979;1
-3.493799925;2.082499981;7.540299892;1
-0.661000013;3.730999947;9.130999565;1
-2.948100090;2.127899885;7.660099983;1
-3.778300047;4.806399822;4.385799885;1
-1.245599985;5.829400063;6.686600208;1
-1.491799951;2.631099939;8.593700409;1
-3.351900101;3.151299953;7.520699978;1
1.567000031;2.634999990;5.701000214;1
-2.076800108;2.695100069;8.678099632;1
-2.222599983;2.661499977;8.402999878;1
-4.434700012;1.864400029;5.727300167;1
-3.039000034;4.685999870;5.850999832;1
-1.364199996;3.087500095;4.221399784;1
-2.988600016;3.490999937;8.104100227;1
-1.322199941;5.687900066;6.844900131;1
-3.168200016;3.161299944;7.492700100;1
-2.919399977;3.485100031;8.000900269;1
-2.450200081;2.848400116;8.694800377;1
-1.011999965;1.766000032;7.049600124;1
-1.257200003;2.892600060;7.257100105;1
-3.680000067;6.344999790;3.325000048;1
-3.578900099;3.052799940;7.690299988;1
-1.834300041;3.403000116;8.159399986;1
-1.792299986;3.315799952;8.285200119;1
-0.075099997;5.988699913;7.541200161;1
0.597800016;1.784500003;2.937700033;1
-3.277899981;5.412000179;4.824399948;1
-1.698799968;7.271500111;4.937600136;1
-1.468899965;5.323299885;2.958600044;1
-3.308000088;6.056000233;4.243999958;1
-3.119499922;2.564899921;7.357299805;1
-2.138999939;2.862999916;8.682000160;1
-1.805999994;4.001200199;8.426699638;1
-3.418200016;4.726699829;4.894000053;1
-3.774100065;2.514100075;7.492700100;1
-3.694900036;2.934099913;7.347599983;1
-3.878999949;0.582000017;4.113999844;1
-4.352099895;4.805600166;5.803199768;1
-3.106499910;3.309799910;8.234199524;1
-2.385400057;2.744100094;8.725099564;1
-1.323300004;3.254699945;7.909900188;1
-2.703500032;3.848099947;8.710700035;1
-1.659899950;4.335299969;6.386499882;1
-1.516700029;5.521399975;7.575099945;1
0.510800004;1.639199972;3.237299919;1
-3.378200054;2.440000057;7.739999771;1
-2.591000080;2.907999992;4.251999855;1
-4.133600235;6.592100143;3.545300007;1
-3.187599897;2.325500011;7.711599827;1
0.254000008;5.224999905;6.902999878;1
-2.229700089;2.407299995;8.488599777;1
-3.510299921;5.483399868;5.147999763;1
-0.495999992;1.120000005;3.352999926;1
-2.581000090;6.762000084;2.798000097;1
-2.336999893;4.914500237;7.524799824;1
-3.030999899;4.322999954;7.596000195;1
-1.949900031;4.779699802;7.132999897;1
-1.763900042;3.377300024;7.489999771;1
-1.654000044;5.537000179;5.881999969;1
-3.918299913;2.160399914;7.604400158;1
-1.429100037;5.132199764;3.384700060;1
-2.490000010;2.732000113;8.462200165;1
-1.100000024;3.177200079;8.597700119;1
-3.826299906;2.301500082;7.772500038;1
-1.527199984;1.909100056;7.116099834;1
-1.601600051;4.405300140;5.638000011;1
-2.167000055;6.889999866;5.025000095;1
-2.799700022;3.058900118;8.212300301;1
-1.897500038;3.193300009;7.480599880;1
-3.935699940;0.953000009;4.149499893;1
-2.137900114;4.666100025;6.728799820;1
-2.892999887;3.015000105;7.934999943;1
-0.147799999;5.293600082;7.125599861;1
-1.521700025;5.856299877;6.623300076;1
-3.618099928;1.719300032;7.302299976;1
0.508000016;6.229000092;7.242000103;1
0.647599995;5.436999798;6.801099777;1
-3.454499960;6.691400051;3.998699903;1
0.055799998;4.460100174;7.360400200;1
-3.784699917;2.397099972;7.686999798;1
-3.538500071;2.194600105;7.648600101;1
-1.799900055;3.198299885;7.560400009;1
-3.763000011;5.132999897;4.594999790;1
-1.432100058;1.601600051;7.218599796;1
-2.457000017;6.335000038;3.683000088;1
1.160899997;3.320400000;5.775000095;1
-3.595000029;6.025000095;4.456999779;1
-0.097000003;-0.492000014;2.982000113;1
-0.814800024;2.382999897;4.814400196;1
-2.242599964;2.908600092;8.706600189;1
-3.595499992;2.868999958;7.453700066;1
-3.078599930;3.405999899;8.127400398;1
-1.721400023;2.776499987;8.646900177;1
-1.271199942;3.232599974;7.699100018;1
-3.607000113;5.260000229;5.002999783;1
-4.208799839;4.705500126;6.026800156;1
0.637000024;6.329999924;7.034999847;1
-2.796299934;3.662499905;7.905799866;1
-2.018599987;2.024100065;4.898200035;1
-1.245900035;3.381700039;7.602900028;1
-0.099500000;6.271999836;7.293600082;1
1.893499970;3.193200111;5.664100170;1
-3.684000015;7.191999912;3.367000103;1
-1.654299974;1.259899974;4.620399952;1
-2.851999998;3.036999941;7.780000210;1
-2.332000017;4.448999882;8.053000450;1
-0.951900005;3.874500036;6.686800003;1
-3.338799953;1.779899955;7.705200195;1
-2.906100035;6.585800171;4.039000034;1
-3.611000061;5.414999962;4.816999912;1
0.106500000;6.172500134;7.438300133;1
-3.960299969;1.958699942;7.587399960;1
-3.589799881;2.839600086;7.352000237;1
-4.019000053;4.736000061;5.706999779;1
-3.666899920;5.417200089;3.132400036;1
1.235999942;3.072000027;4.677999973;1
-2.452600002;4.622200012;4.959300041;1
-0.153400004;5.002200127;6.737400055;1
-1.197399974;4.609799862;4.500000000;1
-1.235499978;5.441899776;2.944499969;1
-3.581700087;2.061500072;8.070099831;1
-2.965899944;3.548300028;8.184000015;1
-3.786299944;3.518100023;3.830199957;1
-4.407999992;1.447000027;3.964999914;1
-1.399999976;6.517799854;4.051199913;1
-1.650900006;3.303999901;7.394700050;1
-4.086800098;5.479899883;3.734400034;1
-0.539699972;4.982800007;7.396299839;1
-2.050400019;3.282900095;8.537300110;1
-2.341500044;5.271999836;4.659900188;1
-0.345800012;3.367100000;6.851200104;1
-0.333999991;4.370999813;8.979999542;1
-1.802399993;3.222899914;7.793700218;1
-1.302099943;2.691999912;8.526499748;1
-2.460599899;2.957499981;8.759099960;1
0.066600002;4.839099884;7.534699917;1
-4.118999958;5.184000015;6.818999767;1
-3.873399973;1.333600044;4.323599815;1
-2.499599934;4.740300179;5.719200134;1
-1.559000015;3.884000063;8.704000473;1
-1.951799989;2.807600021;8.727899551;1
-3.641099930;2.579299927;7.806200027;1
-3.068399906;3.460099936;7.574699879;1
-3.777400017;2.635400057;7.322100163;1
-3.184799910;1.846400023;7.619500160;1
-3.706899881;3.169100046;7.342299938;1
-2.523000002;0.969099998;5.412399769;1
-0.642400026;3.934900045;9.146100044;1
-3.231400013;6.335599899;4.725200176;1
-1.023800015;3.643599987;8.839400291;1
1.177099943;2.537499905;4.869800091;1
-1.832000017;3.010799885;7.402500153;1
-3.852200031;7.100699902;3.414000034;1
-1.159899950;2.939100027;4.448800087;1
-3.652899981;2.658999920;7.400499821;1
-3.440299988;3.350500107;7.369200230;1
-3.804399967;2.068200111;7.486999989;1
-4.361000061;3.256700039;6.730899811;1
0.930999994;3.043400049;5.476399899;1
-3.078000069;3.202699900;8.046400070;1
-3.864900112;2.018800020;7.351099968;1
-2.116899967;2.905499935;8.561900139;1
-1.312100053;3.992300034;5.224400043;1
-2.006299973;2.037899971;7.776700020;1
0.187999994;1.606999993;3.299000025;1
-3.515500069;6.573200226;4.300399780;1
-3.149199963;3.255100012;7.997799873;1
-0.779399991;3.074599981;4.243700027;1
-3.073100090;3.673099995;8.276700020;1
-0.331999987;4.173999786;6.632999897;1
-2.285599947;2.687900066;8.747500420;1
-1.098999977;2.463000059;8.786000252;1
-3.267499924;2.591700077;7.642600060;1
-1.700500011;1.970399976;7.339000225;1
-1.831099987;5.083300114;7.743199825;1
-3.212599993;6.120800018;4.914800167;1
-1.249400020;2.702800035;5.268099785;1
-1.664899945;4.437500000;4.591499805;1
-0.871399999;2.556400061;4.635799885;1
-2.859899998;6.539400101;3.366499901;1
-1.173300028;1.644899964;7.154500008;1
-3.756700039;2.117500067;8.003600121;1
-2.319999933;4.598000050;4.828000069;1
-1.819300056;4.462699890;8.533699989;1
-1.578999996;-0.110200003;2.737600088;1
1.394799948;2.792599916;5.750299931;1
-3.373399973;4.536399841;4.814300060;1
-3.298799992;3.264899969;7.325600147;1
-2.849200010;3.606800079;6.948200226;1
-3.425499916;2.423300028;7.529600143;1
-3.445800066;2.390599966;7.397900105;1
-0.600099981;6.258900166;5.676000118;1
-1.652099967;2.582200050;8.424799919;1
-4.375199795;3.717200041;6.738399982;1
0.638999999;5.630000114;7.668000221;1
-3.852900028;4.885799885;6.828700066;1
-2.986700058;3.460099936;7.684899807;1
-4.469200134;3.168900013;5.947700024;1
-0.821799994;2.258500099;4.657000065;1
-3.665999889;5.565999985;4.316999912;1
-2.443099976;6.871600151;4.663499832;1
-3.780600071;5.685400009;3.810499907;1
-1.455000043;2.467999935;8.793999672;1
1.376999974;3.558000088;5.105999947;1
-2.534699917;1.102200031;5.297200203;1
-3.655999899;6.074999809;3.806999922;1
-1.442999959;5.153999805;5.941999912;1
-1.348099947;6.268199921;4.660600185;1
-2.305000067;7.039000034;4.734000206;1
-1.003999949;4.138999939;7.191999912;1
-3.450700045;4.408500195;7.549900055;1
-0.935999990;2.319999933;4.859000206;1
-3.496900082;3.218400002;6.588200092;1
-3.007499933;2.048300028;7.628099918;1
-3.069999933;3.203299999;7.357399940;1
-1.464699984;4.371500015;4.671700001;1
-1.001999974;4.973000050;8.602999687;1
-0.935000002;3.872999907;8.536000252;1
-2.639499903;3.578299999;7.438099861;1
-0.695999980;-0.816900015;3.109100103;1
-0.878700018;2.845200062;4.381599903;1
-4.167200089;5.721199989;4.103000164;1
-1.900699973;5.508600235;5.311699867;1
-2.219399929;3.232100010;7.546199799;1
-1.272699952;5.788700104;6.803699970;1
-0.777400017;3.769500017;4.585499763;1
-0.363000005;4.159999847;9.185999870;1
-1.190500021;1.646000028;5.066199780;1
1.371799946;2.468400002;5.031000137;1
-2.182100058;4.423200130;4.622600079;1
-2.442699909;2.732700109;8.354399681;1
-2.736099958;2.641599894;8.326199532;1
-2.338099957;5.593500137;4.774700165;1
-2.151799917;2.004499912;5.022999763;1
-3.045799971;6.584199905;2.424299955;1
-1.888700008;3.329099894;7.868599892;1
-1.924299955;7.052400112;3.182899952;1
-1.353399992;3.359499931;8.734399796;1
-4.492000103;1.820500016;6.130099773;1
-4.427599907;3.391999960;6.047699928;1
-4.469699860;2.789000034;6.981200218;1
-4.054100037;2.950999975;6.032700062;1
-4.545199871;3.575200081;6.600500107;1
-4.323100090;2.516200066;7.164999962;1
-4.331500053;2.134900093;6.125699997;1
-3.687200069;3.827899933;6.988599777;1
-4.697400093;3.216599941;6.489900112;1
-4.318200111;2.429300070;6.801599979;1
-3.201999903;2.412100077;5.635099888;1
-3.995100021;5.903100014;3.772200108;1
-4.422299862;3.531800032;6.610599995;1
-4.380799770;2.474400043;6.100900173;1
-2.711800098;2.373600006;3.921999931;1
-4.442100048;3.553800106;6.471099854;1
-4.425899982;3.540199995;6.733900070;1
-4.316500187;3.321300030;6.659500122;1
-1.498000026;1.975000024;4.999000072;1
-1.169899940;5.061999798;3.174900055;1
-1.211799979;4.719900131;8.645700455;1
-4.803599834;3.291699886;6.581399918;1
-3.006000042;5.991000175;3.309000015;1
-4.264200211;3.371299982;6.355999947;1
-0.314999998;0.769999981;2.480000019;1
-4.319900036;2.141400099;6.582200050;1
-0.976499975;5.121500015;3.820400000;1
-4.644299984;3.223599911;6.137199879;1
-4.536799908;3.391299963;6.157800198;1
-4.635200024;3.581099987;6.708199978;1
-1.726600051;4.572299957;3.663599968;1
-0.707000017;4.303999901;8.463999748;1
-0.376899987;3.913899899;6.847300053;1
1.418099999;2.997800112;5.382800102;1
-2.859499931;5.236400127;4.776000023;1
-1.918200016;1.306300044;4.885600090;1
-4.382400036;1.961899996;5.771500111;1
-1.907799959;4.229100227;6.636700153;1
-4.294499874;3.672100067;7.211400032;1
-1.797199965;4.560800076;6.529900074;1
-4.428999901;3.625400066;6.138700008;1
-4.704400063;3.496299982;6.243800163;1
-2.627799988;4.018400192;8.276499748;1
-1.096400023;-0.288700014;3.002399921;1
-3.971699953;2.429800034;7.293000221;1
-4.126100063;3.933599949;7.200500011;1
-0.879000008;5.761000156;7.204999924;1
-0.939999998;3.056999922;7.440999985;1
-3.858099937;3.366400003;4.228600025;1
-4.468500137;2.348599911;6.039999962;1
-2.895999908;2.638999939;5.308000088;1
-3.831399918;3.180999994;7.041999817;1
-1.496500015;5.992400169;4.649099827;1
-4.422100067;2.296400070;6.537199974;1
-1.863299966;2.486900091;8.479499817;1
-2.917599916;3.911000013;6.181900024;1
-4.357699871;2.440799952;6.565499783;1
-4.599100113;3.293499947;6.345799923;1
-1.745100021;3.164400101;8.008999825;1
-3.005199909;4.499199867;4.614900112;1
-4.301099777;1.835500002;5.668099880;1
-4.452000141;2.482800007;6.022999763;1
-4.433199883;3.196199894;6.163700104;1
-2.782999992;5.644000053;3.312000036;1
-3.279099941;4.725399971;4.313000202;1
-2.785000086;5.310100079;4.889800072;1
-4.151500225;2.190799952;6.126800060;1
-0.559199989;4.895500183;8.665100098;1
-1.666000009;6.025300026;6.290999889;1
-3.732599974;3.753599882;6.906000137;1
-4.340700150;2.969199896;6.043099880;1
-4.253099918;2.316499949;6.575799942;1
-4.362699986;2.631700039;6.294099808;1
-1.510699987;4.969200134;6.012499809;1
-4.427899837;3.332900047;5.803299904;1
