//X;Y;Z;R;G;B;Illuminance (PCV);Nx;Ny;Nz
-24.307968140;16.735452652;14.140933037;174;186;226;1;-0.577350;0.577350;0.577350
-26.219190598;21.877563477;16.376447678;114;110;135;1;-0.577350;0.577350;0.577350
-32.934993744;19.758272171;12.850847244;33;23;13;1;-0.577350;0.577350;0.577350
-31.204633713;24.591018677;12.866744041;193;201;224;1;-0.577350;0.577350;0.577350
-28.316522598;18.864753723;17.499397278;78;65;82;1;-0.577350;0.577350;0.577350
-31.460155487;20.825916290;10.295084000;105;107;120;1;-0.577350;0.577350;0.577350
-32.643936157;21.465618134;12.145810127;73;81;117;1;-0.577350;0.577350;0.577350
-33.725288391;22.550388336;15.918267250;136;136;188;1;-0.577350;0.577350;0.577350
-29.960124969;17.641244888;11.087631226;140;144;171;1;-0.577350;0.577350;0.577350
-32.889263153;20.923730850;14.404090881;220;224;235;1;-0.577350;0.577350;0.577350
-38.084651947;17.906236649;10.332735062;160;161;182;1;-0.577350;0.577350;0.577350
-31.717147827;19.682098389;16.368249893;250;252;249;1;-0.577350;0.577350;0.577350
-35.628482819;19.690181732;15.297717094;137;152;171;1;-0.577350;0.577350;0.577350
-33.760269165;22.638412476;16.597686768;204;202;223;1;-0.577350;0.577350;0.577350
-33.176227570;20.476480484;14.934754372;94;78;91;1;-0.577350;0.577350;0.577350
-28.042903900;18.059526443;18.046434402;166;171;203;1;-0.577350;0.577350;0.577350
-29.527242661;20.082334518;18.430089951;207;210;241;1;-0.577350;0.577350;0.577350
-28.365272522;19.304584503;15.553879738;151;137;173;1;-0.577350;0.577350;0.577350
-33.030376434;21.449878693;16.086223602;83;83;111;1;-0.577350;0.577350;0.577350
-33.191604614;23.698539734;13.182142258;251;250;248;1;-0.577350;0.577350;0.577350
-34.377483368;20.076553345;15.031545639;97;117;178;1;-0.577350;0.577350;0.577350
-30.242895126;22.760896683;17.083520889;127;126;157;1;-0.577350;0.577350;0.577350
-33.277984619;22.910566330;17.576480865;159;173;208;1;-0.577350;0.577350;0.577350
-32.728206635;20.964996338;7.333876610;118;115;142;1;-0.577350;0.577350;0.577350
-31.601408005;24.589559555;13.539065361;148;162;209;1;-0.577350;0.577350;0.577350
-29.970445633;16.245718002;10.648759842;124;126;147;1;-0.577350;0.577350;0.577350
-33.328750610;19.240600586;16.501756668;36;33;52;1;-0.577350;0.577350;0.577350
-31.535991669;24.129299164;13.533348083;62;61;67;1;-0.577350;0.577350;0.577350
-34.004131317;15.735424042;11.175529480;159;169;181;1;-0.577350;0.577350;0.577350
-23.416656494;17.310825348;15.273381233;35;40;34;1;-0.577350;0.577350;0.577350
-32.075908661;20.324520111;10.704801559;101;104;119;1;-0.577350;0.577350;0.577350
-26.031536102;15.456233978;10.941427231;174;183;212;1;-0.577350;0.577350;0.577350
-29.236980438;15.821580887;15.605824471;63;61;85;1;-0.577350;0.577350;0.577350
-30.595401764;19.510124207;16.970315933;101;96;128;1;-0.577350;0.577350;0.577350
-27.978145599;21.317481995;15.163916588;152;155;188;1;-0.577350;0.577350;0.577350
-27.822957993;15.303260803;11.373381615;71;78;88;1;-0.577350;0.577350;0.577350
-33.259635925;20.110273361;17.300933838;104;100;125;1;-0.577350;0.577350;0.577350
-33.087821960;18.746734619;16.359149933;82;81;97;1;-0.577350;0.577350;0.577350
-31.383869171;23.122957230;9.751809120;135;131;168;1;-0.577350;0.577350;0.577350
-35.280834198;20.093818665;12.952680588;161;156;188;1;-0.577350;0.577350;0.577350
-33.468841553;21.699096680;14.308562279;37;34;41;1;-0.577350;0.577350;0.577350
-35.374500275;20.052433014;14.966561317;77;65;111;1;-0.577350;0.577350;0.577350
-36.378406525;23.290966034;13.709389687;217;217;217;1;-0.577350;0.577350;0.577350
-28.013751984;18.426219940;17.225687027;166;172;198;1;-0.577350;0.577350;0.577350
-32.261550903;24.389617920;14.825258255;236;236;236;1;-0.577350;0.577350;0.577350
-39.387207031;16.130317688;11.093284607;160;163;178;1;-0.577350;0.577350;0.577350
-32.727252960;19.813367844;12.364952087;116;124;173;1;-0.577350;0.577350;0.577350
-33.422939301;20.320610046;16.906078339;81;83;121;1;-0.577350;0.577350;0.577350
-27.813049316;16.269573212;10.991160393;92;94;109;1;-0.577350;0.577350;0.577350
-29.864349365;16.901014328;17.856328964;248;248;246;1;-0.577350;0.577350;0.577350
-31.729711533;20.203491211;17.281713486;194;199;237;1;-0.577350;0.577350;0.577350
-25.806041718;21.184726715;16.405351639;158;163;185;1;-0.577350;0.577350;0.577350
-32.713035583;20.771236420;13.926573753;155;163;186;1;-0.577350;0.577350;0.577350
-29.886486053;20.804271698;15.127222061;247;249;246;1;-0.577350;0.577350;0.577350
-29.055402756;15.030570984;16.507286072;232;240;243;1;-0.577350;0.577350;0.577350
-30.119577408;21.791471481;8.371429443;60;58;79;1;-0.577350;0.577350;0.577350
-33.747756958;19.722543716;16.465475082;72;69;98;1;-0.577350;0.577350;0.577350
-30.389789581;14.500750542;12.581019402;133;130;173;1;-0.577350;0.577350;0.577350
-34.250797272;14.832744598;11.221549988;152;163;195;1;-0.577350;0.577350;0.577350
-30.225463867;19.664649963;17.996671677;238;242;241;1;-0.577350;0.577350;0.577350
-28.641822815;23.826324463;9.757331848;115;106;133;1;-0.577350;0.577350;0.577350
-32.371753693;20.149971008;16.761058807;90;95;127;1;-0.577350;0.577350;0.577350
-32.238349915;22.956750870;16.723793030;154;159;197;1;-0.577350;0.577350;0.577350
-34.795692444;17.077779770;9.613731384;241;244;255;1;-0.577350;0.577350;0.577350
-27.061233521;18.611854553;13.295954704;65;77;103;1;-0.577350;0.577350;0.577350
-33.348548889;20.597328186;15.149591446;136;148;188;1;-0.577350;0.577350;0.577350
-35.283878326;17.738035202;8.635925293;63;45;57;1;-0.577350;0.577350;0.577350
-34.726577759;20.095006943;14.681118011;128;124;125;1;-0.577350;0.577350;0.577350
-32.593967438;22.167016983;16.485881805;197;217;250;1;-0.577350;0.577350;0.577350
-33.550415039;19.561979294;17.286735535;122;125;158;1;-0.577350;0.577350;0.577350
-32.285568237;20.539144516;17.105464935;138;142;177;1;-0.577350;0.577350;0.577350
-32.968482971;18.634717941;16.285663605;79;70;87;1;-0.577350;0.577350;0.577350
-30.392475128;21.724802017;15.888339996;98;103;133;1;-0.577350;0.577350;0.577350
-29.409635544;15.288585663;15.753369331;90;88;110;1;-0.577350;0.577350;0.577350
-32.009483337;20.011638641;16.126693726;167;175;198;1;-0.577350;0.577350;0.577350
-32.174591064;19.252742767;9.257468224;91;80;84;1;-0.577350;0.577350;0.577350
-35.869884491;16.829561234;14.774691582;203;213;240;1;-0.577350;0.577350;0.577350
-29.712715149;15.828321457;12.010317802;107;104;125;1;-0.577350;0.577350;0.577350
-34.905136108;14.693164825;12.257046700;210;217;245;1;-0.577350;0.577350;0.577350
-33.015487671;18.724964142;16.575332642;86;75;109;1;-0.577350;0.577350;0.577350
-27.726131439;18.451614380;17.559415817;204;221;247;1;-0.577350;0.577350;0.577350
-28.680776596;18.352853775;18.715026855;134;133;141;1;-0.577350;0.577350;0.577350
-32.895019531;21.564571381;16.366329193;85;92;121;1;-0.577350;0.577350;0.577350
-34.649539948;18.900970459;11.741854668;132;137;167;1;-0.577350;0.577350;0.577350
-33.067245483;18.823684692;15.463485718;150;149;191;1;-0.577350;0.577350;0.577350
-34.960639954;19.250795364;12.192182541;120;131;151;1;-0.577350;0.577350;0.577350
-29.829782486;17.107357025;15.232576370;154;160;186;1;-0.577350;0.577350;0.577350
-31.934144974;20.244169235;10.619314194;0;0;2;1;-0.577350;0.577350;0.577350
-36.970218658;17.516689301;11.227844238;220;233;242;1;-0.577350;0.577350;0.577350
-30.078628540;20.922494888;15.065488815;245;247;244;1;-0.577350;0.577350;0.577350
-33.194618225;18.558200836;9.568455696;79;73;77;1;-0.577350;0.577350;0.577350
-26.329175949;21.156196594;15.864569664;61;73;61;1;-0.577350;0.577350;0.577350
-34.627090454;20.456981659;13.266122818;161;158;185;1;-0.577350;0.577350;0.577350
-33.683662415;19.841026306;17.455892563;117;117;155;1;-0.577350;0.577350;0.577350
-33.275630951;19.188989639;16.724878311;95;98;115;1;-0.577350;0.577350;0.577350
-34.928985596;19.761148453;15.071423531;249;249;249;1;-0.577350;0.577350;0.577350
-37.240074158;18.084196091;8.583222389;234;238;237;1;-0.577350;0.577350;0.577350
-29.023012161;18.772375107;16.780334473;105;107;122;1;-0.577350;0.577350;0.577350
-33.191730499;20.137304306;16.546045303;81;82;110;1;-0.577350;0.577350;0.577350
-27.780220032;18.796428680;17.322967529;134;135;156;1;-0.577350;0.577350;0.577350
-25.017810822;18.019557953;14.914388657;77;83;105;1;-0.577350;0.577350;0.577350
-28.371030807;18.417842865;15.577913284;195;191;226;1;-0.577350;0.577350;0.577350
-30.802032471;23.176235199;9.395718575;153;152;186;1;-0.577350;0.577350;0.577350
-34.076545715;20.386453629;17.518730164;99;113;162;1;-0.577350;0.577350;0.577350
-31.788858414;23.207818985;12.812172890;101;87;123;1;-0.577350;0.577350;0.577350
-29.132850647;12.593129158;10.379940033;131;123;164;1;-0.577350;0.577350;0.577350
-30.805492401;19.345531464;9.274060249;173;187;226;1;-0.577350;0.577350;0.577350
-30.756298065;20.911201477;9.842241287;177;180;197;1;-0.577350;0.577350;0.577350
-33.889755249;18.626502991;10.788848877;93;86;93;1;-0.577350;0.577350;0.577350
-28.918670654;19.984071732;16.402511597;239;247;249;1;-0.577350;0.577350;0.577350
-23.554101944;17.435680389;15.341172218;29;29;29;1;-0.577350;0.577350;0.577350
-23.676830292;18.051858902;15.083449364;78;85;104;1;-0.577350;0.577350;0.577350
-39.835323334;17.927658081;10.970013618;226;227;222;1;-0.577350;0.577350;0.577350
-31.980405807;18.756385803;17.244634628;56;60;98;1;-0.577350;0.577350;0.577350
-30.806213379;21.147571564;9.681774139;71;77;77;1;-0.577350;0.577350;0.577350
-32.234222412;23.563381195;13.365602493;132;137;169;1;-0.577350;0.577350;0.577350
-33.531135559;19.665794373;17.230813980;181;180;214;1;-0.577350;0.577350;0.577350
-28.179414749;19.646667480;15.727145195;140;134;168;1;-0.577350;0.577350;0.577350
-23.569084167;16.748405457;14.139092445;146;148;189;1;-0.577350;0.577350;0.577350
-33.088516235;19.824480057;16.497188568;76;75;153;1;-0.577350;0.577350;0.577350
-31.594354630;14.600886345;9.826029778;125;139;165;1;-0.577350;0.577350;0.577350
-31.561462402;23.634845734;11.921188354;228;228;228;1;-0.577350;0.577350;0.577350
-28.510778427;19.545532227;9.350895882;112;111;145;1;-0.577350;0.577350;0.577350
-33.036720276;18.889835358;16.378580093;91;89;94;1;-0.577350;0.577350;0.577350
-32.574199677;19.039817810;15.166067123;76;82;104;1;-0.577350;0.577350;0.577350
-33.349102020;18.615242004;15.914357185;130;108;146;1;-0.577350;0.577350;0.577350
-32.837558746;22.312622070;15.872831345;174;187;204;1;-0.577350;0.577350;0.577350
-38.012042999;16.616184235;10.585660934;247;244;235;1;-0.577350;0.577350;0.577350
-30.338470459;20.241765976;8.901024818;96;92;117;1;-0.577350;0.577350;0.577350
-30.866436005;21.724800110;8.291229248;71;81;108;1;-0.577350;0.577350;0.577350
-25.915678024;22.114175797;16.234680176;81;82;76;1;-0.577350;0.577350;0.577350
-32.803253174;22.103694916;12.101178169;247;248;243;1;-0.577350;0.577350;0.577350
-30.886289597;21.591623306;11.923374176;125;118;149;1;-0.577350;0.577350;0.577350
-30.440681458;15.466033936;16.918329239;90;84;120;1;-0.577350;0.577350;0.577350
-37.240337372;18.302566528;10.379573822;95;88;106;1;-0.577350;0.577350;0.577350
-33.518112183;23.306447983;15.365472794;90;91;119;1;-0.577350;0.577350;0.577350
-25.484678268;20.842527390;14.736989975;160;174;187;1;-0.577350;0.577350;0.577350
-32.016967773;23.758777618;13.628437996;114;104;138;1;-0.577350;0.577350;0.577350
-29.578208923;23.528413773;10.511875153;167;167;195;1;-0.577350;0.577350;0.577350
-30.087465286;16.120388031;16.537261963;84;84;96;1;-0.577350;0.577350;0.577350
-31.186599731;21.844717026;11.723374367;92;94;91;1;-0.577350;0.577350;0.577350
-32.483146667;19.815715790;12.537341118;50;49;57;1;-0.577350;0.577350;0.577350
-29.315599442;19.144647598;15.210901260;101;94;112;1;-0.577350;0.577350;0.577350
-33.384681702;14.992444992;8.521919250;135;136;157;1;-0.577350;0.577350;0.577350
-33.018478394;23.072237015;16.412591934;113;133;183;1;-0.577350;0.577350;0.577350
-35.119812012;15.029931068;12.868504524;187;194;210;1;-0.577350;0.577350;0.577350
-28.498989105;16.283044815;15.974071503;141;147;179;1;-0.577350;0.577350;0.577350
-30.134569168;15.483245850;16.775754929;135;140;169;1;-0.577350;0.577350;0.577350
-29.339164734;22.893783569;16.589523315;133;149;175;1;-0.577350;0.577350;0.577350
-30.451507568;19.512105942;7.643290520;76;73;80;1;-0.577350;0.577350;0.577350
-29.650852203;13.521943092;9.836611748;119;118;150;1;-0.577350;0.577350;0.577350
-35.240135193;16.360107422;9.600711823;205;227;250;1;-0.577350;0.577350;0.577350
-31.690948486;20.791667938;8.522536278;24;24;50;1;-0.577350;0.577350;0.577350
-32.837173462;18.667734146;16.330589294;84;85;103;1;-0.577350;0.577350;0.577350
-29.587326050;15.413635254;15.063934326;65;60;66;1;-0.577350;0.577350;0.577350
-30.829391479;18.635036469;7.443984032;55;63;52;1;-0.577350;0.577350;0.577350
-31.493074417;23.476987839;11.312118530;88;72;75;1;-0.577350;0.577350;0.577350
-33.871326447;15.093801498;11.450228691;198;213;232;1;-0.577350;0.577350;0.577350
-37.454071045;19.739662170;13.773920059;238;242;243;1;-0.577350;0.577350;0.577350
-26.517644882;22.506742477;15.482158661;202;213;233;1;-0.577350;0.577350;0.577350
-33.243392944;19.338188171;16.917469025;138;134;167;1;-0.577350;0.577350;0.577350
-31.888385773;22.919685364;12.821429253;154;146;170;1;-0.577350;0.577350;0.577350
-32.192523956;19.877462387;17.369951248;176;180;205;1;-0.577350;0.577350;0.577350
-30.487426758;22.444717407;16.089258194;123;126;157;1;-0.577350;0.577350;0.577350
-32.123134613;19.700946808;16.815668106;190;192;217;1;-0.577350;0.577350;0.577350
-25.952003479;22.512701035;15.231346130;129;136;155;1;-0.577350;0.577350;0.577350
-29.772953033;20.428182602;16.948434830;203;217;244;1;-0.577350;0.577350;0.577350
-29.105842590;18.898691177;17.892837524;218;218;252;1;-0.577350;0.577350;0.577350
-39.209770203;18.519802094;11.005403519;227;242;237;1;-0.577350;0.577350;0.577350
-27.281970978;17.732610703;14.995357513;158;160;181;1;-0.577350;0.577350;0.577350
-34.203540802;17.254404068;8.818667412;244;248;249;1;-0.577350;0.577350;0.577350
-38.231349945;19.955352783;13.939528465;181;195;234;1;-0.577350;0.577350;0.577350
-33.433940887;14.495935440;11.563386917;238;255;255;1;-0.577350;0.577350;0.577350
-32.803558350;18.659997940;15.752457619;127;127;151;1;-0.577350;0.577350;0.577350
-32.823131561;20.950706482;15.280685425;245;246;250;1;-0.577350;0.577350;0.577350
-29.609272003;13.503600121;9.653962135;121;121;147;1;-0.577350;0.577350;0.577350
-29.581878662;23.971473694;9.147738457;151;152;183;1;-0.577350;0.577350;0.577350
-32.968200684;18.941070557;16.303804398;86;91;111;1;-0.577350;0.577350;0.577350
-30.405464172;16.047950745;15.845726967;51;53;78;1;-0.577350;0.577350;0.577350
-28.464733124;19.449493408;15.027199745;56;53;80;1;-0.577350;0.577350;0.577350
-29.256206512;18.646064758;15.470971107;127;135;171;1;-0.577350;0.577350;0.577350
-29.659542084;17.364961624;16.209903717;219;224;243;1;-0.577350;0.577350;0.577350
-34.045753479;20.694643021;13.814056396;171;171;209;1;-0.577350;0.577350;0.577350
-39.568004608;17.267877579;10.544836998;226;226;224;1;-0.577350;0.577350;0.577350
-33.476402283;19.794313431;17.606649399;224;231;237;1;-0.577350;0.577350;0.577350
-33.982475281;20.609783173;13.670977592;178;176;216;1;-0.577350;0.577350;0.577350
-31.643667221;20.829740524;18.210252762;99;96;139;1;-0.577350;0.577350;0.577350
-34.690204620;19.983341217;11.896183014;110;132;179;1;-0.577350;0.577350;0.577350
-31.914592743;19.834396362;17.100336075;183;190;206;1;-0.577350;0.577350;0.577350
-31.659584045;23.045516968;11.235815048;94;94;118;1;-0.577350;0.577350;0.577350
-30.892742157;23.710723877;10.338644028;59;37;39;1;-0.577350;0.577350;0.577350
-35.693813324;19.361255646;11.957551956;51;48;77;1;-0.577350;0.577350;0.577350
-33.533409119;19.900943756;17.257755280;113;108;138;1;-0.577350;0.577350;0.577350
-29.306835175;13.059103966;7.866739750;81;69;93;1;-0.577350;0.577350;0.577350
-27.474596024;17.543893814;14.571489334;171;170;204;1;-0.577350;0.577350;0.577350
-28.558866501;18.344627380;12.100625038;85;96;128;1;-0.577350;0.577350;0.577350
-25.188957214;20.196189880;14.225011826;118;129;149;1;-0.577350;0.577350;0.577350
-29.123582840;19.984653473;15.361924171;146;153;172;1;-0.577350;0.577350;0.577350
-31.277992249;23.185407639;12.596827507;206;222;247;1;-0.577350;0.577350;0.577350
-32.716712952;20.510559082;17.055828094;102;101;143;1;-0.577350;0.577350;0.577350
-34.018093109;20.715408325;13.658267021;189;193;231;1;-0.577350;0.577350;0.577350
-32.182701111;17.192480087;8.070752144;68;53;74;1;-0.577350;0.577350;0.577350
-30.432434082;15.654455185;11.801801682;56;50;64;1;-0.577350;0.577350;0.577350
-36.255844116;20.541368484;13.516476631;197;204;233;1;-0.577350;0.577350;0.577350
-33.763511658;20.416233063;17.519557953;104;113;168;1;-0.577350;0.577350;0.577350
-29.690570831;23.638992310;10.478020668;137;141;168;1;-0.577350;0.577350;0.577350
-33.247287750;21.740476608;16.163368225;67;72;104;1;-0.577350;0.577350;0.577350
-29.136651993;24.571876526;10.848196983;210;216;214;1;-0.577350;0.577350;0.577350
-29.860080719;15.177231789;15.293253899;52;50;74;1;-0.577350;0.577350;0.577350
-27.684675217;15.595713615;10.813590050;188;193;223;1;-0.577350;0.577350;0.577350
-33.703876495;22.572065353;17.043684006;97;90;142;1;-0.577350;0.577350;0.577350
-34.014640808;19.779920578;16.406347275;203;213;249;1;-0.577350;0.577350;0.577350
-29.990512848;14.238655090;9.240701675;212;219;247;1;-0.577350;0.577350;0.577350
-33.720031738;16.630870819;10.859112740;90;87;116;1;-0.577350;0.577350;0.577350
-30.995187759;14.424353600;10.438513756;125;138;146;1;-0.577350;0.577350;0.577350
-33.440166473;21.201784134;14.854783058;89;97;118;1;-0.577350;0.577350;0.577350
-34.288631439;16.099699020;12.974925995;192;200;219;1;-0.577350;0.577350;0.577350
-31.493152618;24.638090134;14.123758316;170;186;220;1;-0.577350;0.577350;0.577350
-29.374956131;23.721937180;8.898982048;189;195;243;1;-0.577350;0.577350;0.577350
-27.381797791;20.705778122;9.249308586;63;48;77;1;-0.577350;0.577350;0.577350
-29.865177155;15.223651886;14.666797638;147;149;188;1;-0.577350;0.577350;0.577350
-27.610820770;19.375484467;14.738125801;189;203;230;1;-0.577350;0.577350;0.577350
-39.658195496;18.744413376;10.211570740;132;129;150;1;-0.577350;0.577350;0.577350
-32.783874512;18.817434311;16.143754959;65;57;80;1;-0.577350;0.577350;0.577350
-32.126731873;19.334802628;15.906865120;200;204;233;1;-0.577350;0.577350;0.577350
-31.292589188;20.833976746;17.779459000;132;144;168;1;-0.577350;0.577350;0.577350
-33.041030884;20.142448425;12.948869705;95;112;168;1;-0.577350;0.577350;0.577350
-26.046333313;20.350101471;13.837401390;218;224;250;1;-0.577350;0.577350;0.577350
-34.969299316;19.460292816;14.797007561;61;75;112;1;-0.577350;0.577350;0.577350
-27.265188217;21.432720184;10.022872925;181;184;215;1;-0.577350;0.577350;0.577350
-31.416131973;21.659545898;12.707416534;182;187;217;1;-0.577350;0.577350;0.577350
-33.065567017;19.302736282;10.244924545;84;82;95;1;-0.577350;0.577350;0.577350
-28.140285492;17.936017990;11.604267120;164;185;230;1;-0.577350;0.577350;0.577350
-33.392108917;19.855100632;17.545450211;126;121;151;1;-0.577350;0.577350;0.577350
-36.305583954;20.165616989;8.580375671;219;219;217;1;-0.577350;0.577350;0.577350
-29.636333466;23.486513138;16.499662399;246;252;252;1;-0.577350;0.577350;0.577350
-30.018295288;20.493278503;8.656085968;68;73;77;1;-0.577350;0.577350;0.577350
-29.816116333;21.572549820;15.619071007;141;151;176;1;-0.577350;0.577350;0.577350
-35.203563690;17.502902985;11.435714722;167;176;193;1;-0.577350;0.577350;0.577350
-29.916372299;18.816905975;7.120420933;82;84;105;1;-0.577350;0.577350;0.577350
-32.658744812;19.990154266;17.143991470;66;59;92;1;-0.577350;0.577350;0.577350
-36.753719330;21.135597229;8.232430458;85;83;107;1;-0.577350;0.577350;0.577350
-26.044765472;22.273328781;14.717571259;136;154;164;1;-0.577350;0.577350;0.577350
-31.037744522;23.894094467;10.365412712;90;78;82;1;-0.577350;0.577350;0.577350
-34.673202515;18.736545563;14.044756889;223;229;251;1;-0.577350;0.577350;0.577350
-33.052516937;19.568679810;14.287402153;59;61;73;1;-0.577350;0.577350;0.577350
-33.179523468;20.570354462;16.597478867;124;129;167;1;-0.577350;0.577350;0.577350
-26.404172897;22.195953369;16.545890808;109;107;121;1;-0.577350;0.577350;0.577350
-33.759582520;22.807270050;16.174116135;189;186;215;1;-0.577350;0.577350;0.577350
-35.664760590;19.973583221;15.496681213;95;80;111;1;-0.577350;0.577350;0.577350
-31.972900391;24.871788025;15.391935349;201;216;221;1;-0.577350;0.577350;0.577350
-32.834541321;22.874071121;13.493253708;227;241;250;1;-0.577350;0.577350;0.577350
-28.749376297;17.784507751;17.323947906;111;114;147;1;-0.577350;0.577350;0.577350
-28.263284683;18.273500443;17.520580292;228;230;245;1;-0.577350;0.577350;0.577350
-30.020011902;23.872671127;10.867083549;95;97;120;1;-0.577350;0.577350;0.577350
-30.220952988;16.415790558;16.188199997;94;95;100;1;-0.577350;0.577350;0.577350
-30.470705032;22.152755737;16.868349075;220;235;242;1;-0.577350;0.577350;0.577350
-24.407970428;17.304719925;15.031773567;140;147;173;1;-0.577350;0.577350;0.577350
-32.483345032;24.379037857;14.048529625;151;157;189;1;-0.577350;0.577350;0.577350
-26.482852936;21.502010345;16.154767990;215;228;244;1;-0.577350;0.577350;0.577350
-26.579837799;21.447687149;16.223709106;112;117;139;1;-0.577350;0.577350;0.577350
-23.508989334;16.835514069;15.115637779;172;187;208;1;-0.577350;0.577350;0.577350
-33.182830811;19.594541550;17.367761612;136;136;162;1;-0.577350;0.577350;0.577350
-33.073181152;19.415027618;16.878793716;108;100;137;1;-0.577350;0.577350;0.577350
-38.019508362;18.590541840;10.949857712;229;236;254;1;-0.577350;0.577350;0.577350
-29.924228668;19.985170364;17.760549545;152;157;177;1;-0.577350;0.577350;0.577350
-23.143262863;17.065719604;13.207633018;154;155;175;1;-0.577350;0.577350;0.577350
-31.063838959;15.287733078;11.106878281;160;162;175;1;-0.577350;0.577350;0.577350
-28.021184921;21.745901108;8.646942139;55;57;78;1;-0.577350;0.577350;0.577350
-30.189306259;19.690996170;17.436889648;96;97;128;1;-0.577350;0.577350;0.577350
-31.622074127;24.448936462;9.315460205;218;218;218;1;-0.577350;0.577350;0.577350
-37.546176910;18.576982498;10.225611687;241;243;242;1;-0.577350;0.577350;0.577350
-32.867881775;19.111396790;15.733764648;70;66;93;1;-0.577350;0.577350;0.577350
-29.692682266;23.363672256;10.368352890;120;118;142;1;-0.577350;0.577350;0.577350
-25.314023972;21.363693237;15.893907547;146;150;179;1;-0.577350;0.577350;0.577350
-33.011127472;20.015705109;13.150969505;85;102;158;1;-0.577350;0.577350;0.577350
-31.678775787;22.957714081;12.827085495;137;133;156;1;-0.577350;0.577350;0.577350
-33.623828888;21.897596359;17.143318176;124;149;206;1;-0.577350;0.577350;0.577350
-33.448825836;20.565509796;13.765824318;90;86;113;1;-0.577350;0.577350;0.577350
-32.851016998;19.134935379;16.362495422;78;70;85;1;-0.577350;0.577350;0.577350
-24.453224182;17.730411530;14.938685417;202;213;231;1;-0.577350;0.577350;0.577350
-34.488357544;19.695560455;14.449373245;100;112;172;1;-0.577350;0.577350;0.577350
-27.346488953;20.651918411;9.745267868;82;81;99;1;-0.577350;0.577350;0.577350
-33.094444275;18.961194992;16.253889084;100;99;130;1;-0.577350;0.577350;0.577350
-23.632150650;16.848678589;14.501105309;61;71;80;1;-0.577350;0.577350;0.577350
-40.751899719;18.098703384;11.055065155;201;208;218;1;-0.577350;0.577350;0.577350
-28.771608353;22.527530670;8.154445648;133;137;164;1;-0.577350;0.577350;0.577350
-28.857742310;15.065052986;16.349943161;53;54;82;1;-0.577350;0.577350;0.577350
-28.805328369;14.367218018;9.207876205;131;140;157;1;-0.577350;0.577350;0.577350
-32.874164581;19.206457138;17.687118530;231;228;223;1;-0.577350;0.577350;0.577350
-35.196277618;17.944961548;10.795192719;35;43;22;1;-0.577350;0.577350;0.577350
-32.938262939;19.306682587;9.818197250;87;84;115;1;-0.577350;0.577350;0.577350
-31.088193893;18.454223633;7.963018894;147;147;157;1;-0.577350;0.577350;0.577350
-33.333122253;19.976572037;17.275180817;102;91;121;1;-0.577350;0.577350;0.577350
-31.955057144;24.064001083;13.799837112;109;105;130;1;-0.577350;0.577350;0.577350
-25.577337265;22.326446533;15.790594101;177;191;204;1;-0.577350;0.577350;0.577350
-32.306644440;21.521944046;9.757060051;237;236;252;1;-0.577350;0.577350;0.577350
-31.819644928;20.356290817;10.984099388;78;86;97;1;-0.577350;0.577350;0.577350
-29.742065430;20.011171341;17.308032990;172;184;206;1;-0.577350;0.577350;0.577350
-30.222927094;14.870188713;10.960114479;208;207;247;1;-0.577350;0.577350;0.577350
-33.123321533;19.645961761;12.663585663;115;105;132;1;-0.577350;0.577350;0.577350
-32.230636597;19.900613785;10.279549599;192;202;229;1;-0.577350;0.577350;0.577350
-29.714460373;19.337364197;18.181518555;239;247;255;1;-0.577350;0.577350;0.577350
-30.664821625;15.614216805;16.763435364;215;215;215;1;-0.577350;0.577350;0.577350
-33.316478729;19.982986450;17.594043732;153;155;176;1;-0.577350;0.577350;0.577350
-32.770812988;19.083246231;16.121864319;58;56;59;1;-0.577350;0.577350;0.577350
-35.730361938;20.159646988;15.690701485;129;134;174;1;-0.577350;0.577350;0.577350
-30.212551117;14.864420891;9.337694168;206;214;253;1;-0.577350;0.577350;0.577350
-29.701398849;13.553684235;10.337555885;98;109;127;1;-0.577350;0.577350;0.577350
-27.853385925;20.839620590;16.765913010;70;54;93;1;-0.577350;0.577350;0.577350
-34.882221222;15.245678902;11.577352524;219;229;241;1;-0.577350;0.577350;0.577350
-29.475948334;18.854621887;12.797250748;76;77;82;1;-0.577350;0.577350;0.577350
-35.816734314;17.163152695;15.166828156;229;229;227;1;-0.577350;0.577350;0.577350
-30.660655975;20.546337128;16.876661301;250;250;248;1;-0.577350;0.577350;0.577350
-32.519001007;18.701488495;15.907566071;55;53;54;1;-0.577350;0.577350;0.577350
-29.860229492;14.312029839;11.370985985;233;242;249;1;-0.577350;0.577350;0.577350
-29.991271973;19.886827469;17.843296051;203;210;236;1;-0.577350;0.577350;0.577350
-27.780550003;18.170375824;9.107824326;51;46;53;1;-0.577350;0.577350;0.577350
-30.317697525;22.311008453;15.024105072;71;57;92;1;-0.577350;0.577350;0.577350
-31.015163422;20.231273651;9.628334999;95;93;94;1;-0.577350;0.577350;0.577350
-32.807334900;21.222682953;14.981164932;185;184;216;1;-0.577350;0.577350;0.577350
-32.111442566;22.668972015;12.103824615;125;128;161;1;-0.577350;0.577350;0.577350
-26.521129608;22.392023087;16.075988770;64;51;42;1;-0.577350;0.577350;0.577350
-29.739681244;22.910938263;8.020992279;88;94;126;1;-0.577350;0.577350;0.577350
-33.277236938;19.985898972;15.281030655;168;171;206;1;-0.577350;0.577350;0.577350
-29.929977417;14.452218056;9.912386894;137;134;163;1;-0.577350;0.577350;0.577350
-31.667093277;20.358175278;17.432407379;186;195;236;1;-0.577350;0.577350;0.577350
-30.441255569;23.255817413;9.118268013;117;94;112;1;-0.577350;0.577350;0.577350
-31.894012451;22.219291687;12.213968277;112;118;152;1;-0.577350;0.577350;0.577350
-32.136062622;20.533451080;12.792639732;142;148;162;1;-0.577350;0.577350;0.577350
-29.704940796;16.446941376;14.987323761;74;78;87;1;-0.577350;0.577350;0.577350
-32.430076599;20.454660416;16.894598007;79;73;101;1;-0.577350;0.577350;0.577350
-25.640089035;22.493991852;15.737038612;217;232;235;1;-0.577350;0.577350;0.577350
-28.397569656;18.910387039;11.681749344;154;161;171;1;-0.577350;0.577350;0.577350
-34.860511780;20.457130432;13.985666275;124;130;180;1;-0.577350;0.577350;0.577350
-27.742898941;15.764640808;9.521074295;209;211;255;1;-0.577350;0.577350;0.577350
-32.884235382;22.074113846;11.438424110;69;69;93;1;-0.577350;0.577350;0.577350
-29.274238586;15.810356140;17.199176788;56;57;85;1;-0.577350;0.577350;0.577350
-31.237691879;22.441591263;13.054380417;207;225;245;1;-0.577350;0.577350;0.577350
-30.394910812;22.681095123;9.867995262;73;75;87;1;-0.577350;0.577350;0.577350
-26.291069031;21.049327850;15.863483429;120;125;144;1;-0.577350;0.577350;0.577350
-30.488416672;20.685459137;16.236434937;246;250;249;1;-0.577350;0.577350;0.577350
-32.582912445;21.940551758;15.921586037;61;64;79;1;-0.577350;0.577350;0.577350
-28.980541229;16.162235260;15.990583420;77;69;93;1;-0.577350;0.577350;0.577350
-29.729747772;14.184754372;11.365100861;234;250;247;1;-0.577350;0.577350;0.577350
-27.787151337;19.068698883;17.066026688;225;230;236;1;-0.577350;0.577350;0.577350
-32.737365723;22.101818085;17.038541794;221;227;249;1;-0.577350;0.577350;0.577350
-29.575044632;15.754206657;17.574018478;210;222;246;1;-0.577350;0.577350;0.577350
-23.922737122;16.985807419;14.811028481;52;57;60;1;-0.577350;0.577350;0.577350
-35.367946625;19.135704041;14.040153503;195;170;212;1;-0.577350;0.577350;0.577350
-32.451480865;19.881397247;15.227233887;85;88;121;1;-0.577350;0.577350;0.577350
-32.824344635;18.578838348;15.611027718;106;94;166;1;-0.577350;0.577350;0.577350
-29.566974640;20.233186722;14.807017326;71;68;99;1;-0.577350;0.577350;0.577350
-27.072843552;17.540592194;14.220096588;117;137;187;1;-0.577350;0.577350;0.577350
-26.179359436;22.000007629;14.373313904;143;150;178;1;-0.577350;0.577350;0.577350
-32.251625061;19.888051987;12.451999664;174;189;196;1;-0.577350;0.577350;0.577350
-29.815734863;16.528240204;15.752618790;69;68;76;1;-0.577350;0.577350;0.577350
-29.743057251;16.011180878;16.746604919;137;148;168;1;-0.577350;0.577350;0.577350
-30.142677307;13.789088249;10.373202324;89;83;95;1;-0.577350;0.577350;0.577350
-30.405368805;20.243465424;7.727408409;124;121;150;1;-0.577350;0.577350;0.577350
-36.870780945;14.407384872;13.098513603;231;232;234;1;-0.577350;0.577350;0.577350
-29.910352707;14.547307014;11.905632973;81;68;98;1;-0.577350;0.577350;0.577350
-30.717878342;15.888354301;8.551808357;162;158;183;1;-0.577350;0.577350;0.577350
-37.279987335;20.191320419;13.181664467;179;192;237;1;-0.577350;0.577350;0.577350
-25.611324310;21.857967377;14.650860786;101;99;121;1;-0.577350;0.577350;0.577350
-33.282596588;19.943367004;16.607654572;113;110;119;1;-0.577350;0.577350;0.577350
-33.461524963;23.048980713;16.429405212;109;108;148;1;-0.577350;0.577350;0.577350
-32.576347351;16.726436615;5.008226871;93;69;67;1;-0.577350;0.577350;0.577350
-29.378139496;18.693574905;14.773442268;79;81;93;1;-0.577350;0.577350;0.577350
-26.490406036;21.617429733;16.358768463;182;198;223;1;-0.577350;0.577350;0.577350
-30.168010712;21.401224136;15.468178749;86;77;122;1;-0.577350;0.577350;0.577350
-27.206382751;17.623161316;15.346484184;226;232;246;1;-0.577350;0.577350;0.577350
-29.205064774;17.239604950;16.376411438;118;131;150;1;-0.577350;0.577350;0.577350
-32.213443756;21.310585022;10.874655724;91;94;101;1;-0.577350;0.577350;0.577350
-29.707435608;23.288320541;9.422734261;182;192;219;1;-0.577350;0.577350;0.577350
-34.032474518;19.131488800;11.483078957;205;221;247;1;-0.577350;0.577350;0.577350
-31.947738647;20.285552979;17.179811478;244;248;251;1;-0.577350;0.577350;0.577350
-33.060062408;20.394598007;15.825921059;63;68;126;1;-0.577350;0.577350;0.577350
-32.476810455;21.267450333;12.301141739;99;113;174;1;-0.577350;0.577350;0.577350
-29.641290665;14.150330544;12.592621803;73;68;98;1;-0.577350;0.577350;0.577350
-23.298128128;18.016815186;13.260535240;141;139;163;1;-0.577350;0.577350;0.577350
-32.987659454;20.016624451;16.125339508;119;126;144;1;-0.577350;0.577350;0.577350
-31.787883759;21.075878143;11.453047752;61;69;116;1;-0.577350;0.577350;0.577350
-31.446231842;17.669015884;7.474126816;107;84;90;1;-0.577350;0.577350;0.577350
-28.943901062;17.894638062;17.083822250;249;250;244;1;-0.577350;0.577350;0.577350
-35.257316589;19.171646118;10.347277641;153;155;206;1;-0.577350;0.577350;0.577350
-32.320014954;19.578069687;17.204458237;89;87;136;1;-0.577350;0.577350;0.577350
-29.499404907;15.242010117;14.578735352;66;58;69;1;-0.577350;0.577350;0.577350
-29.107303619;15.131246567;16.374237061;112;95;113;1;-0.577350;0.577350;0.577350
-27.432596207;19.397006989;13.565246582;85;86;107;1;-0.577350;0.577350;0.577350
-22.705821991;18.030508041;14.285264969;121;135;161;1;-0.577350;0.577350;0.577350
-33.597396851;22.317142487;17.153112411;73;75;114;1;-0.577350;0.577350;0.577350
-32.698383331;19.284788132;16.204786301;68;69;87;1;-0.577350;0.577350;0.577350
-30.003437042;16.260990143;10.524208069;145;148;165;1;-0.577350;0.577350;0.577350
-27.257289886;20.447788239;9.304609299;190;197;226;1;-0.577350;0.577350;0.577350
-35.631927490;19.443565369;12.784906387;251;252;247;1;-0.577350;0.577350;0.577350
-32.097122192;24.943410873;14.843431473;169;181;197;1;-0.577350;0.577350;0.577350
-34.661048889;16.511310577;9.710130692;243;248;242;1;-0.577350;0.577350;0.577350
-25.417510986;22.312934875;15.623830795;195;202;218;1;-0.577350;0.577350;0.577350
-32.941406250;19.724649429;16.842798233;109;109;137;1;-0.577350;0.577350;0.577350
-26.037746429;22.540159225;16.418685913;171;180;209;1;-0.577350;0.577350;0.577350
-25.306600571;17.200412750;11.867438316;71;65;75;1;-0.577350;0.577350;0.577350
-30.022855759;20.659215927;17.508598328;111;114;157;1;-0.577350;0.577350;0.577350
-33.368957520;21.892887115;14.548360825;82;84;132;1;-0.577350;0.577350;0.577350
-32.116134644;20.084329605;17.346065521;144;127;169;1;-0.577350;0.577350;0.577350
-32.141921997;16.006637573;7.300848484;215;212;243;1;-0.577350;0.577350;0.577350
-29.487487793;18.412370682;12.145108223;142;154;180;1;-0.577350;0.577350;0.577350
-33.735671997;19.201396942;10.060037613;208;226;246;1;-0.577350;0.577350;0.577350
-31.973802567;19.620145798;11.128267288;81;72;73;1;-0.577350;0.577350;0.577350
-29.387361526;23.977354050;9.526985168;227;218;221;1;-0.577350;0.577350;0.577350
-27.586191177;18.862211227;12.255136490;28;22;36;1;-0.577350;0.577350;0.577350
-29.872411728;16.138883591;17.197767258;79;82;125;1;-0.577350;0.577350;0.577350
-36.594825745;19.917192459;14.125773430;172;180;199;1;-0.577350;0.577350;0.577350
-33.731700897;15.781895638;11.441163063;150;156;172;1;-0.577350;0.577350;0.577350
-32.075687408;19.511547089;16.165731430;242;246;245;1;-0.577350;0.577350;0.577350
-30.630695343;15.902522087;16.963697433;53;45;84;1;-0.577350;0.577350;0.577350
-31.283878326;14.066602707;9.518141747;234;243;248;1;-0.577350;0.577350;0.577350
-30.243999481;20.211648941;7.957625389;115;119;148;1;-0.577350;0.577350;0.577350
-32.582069397;24.745380402;13.483758926;43;41;42;1;-0.577350;0.577350;0.577350
-29.747617722;20.153234482;8.442478180;77;77;77;1;-0.577350;0.577350;0.577350
-27.829822540;19.494041443;17.419609070;103;100;131;1;-0.577350;0.577350;0.577350
-25.951538086;21.170690536;15.405671120;82;88;104;1;-0.577350;0.577350;0.577350
-29.063043594;19.201978683;15.154870987;89;95;107;1;-0.577350;0.577350;0.577350
-32.702278137;22.632991791;16.685541153;139;140;160;1;-0.577350;0.577350;0.577350
-27.135017395;16.337436676;9.867510796;65;67;116;1;-0.577350;0.577350;0.577350
-32.397174835;21.913295746;12.422881126;93;100;155;1;-0.577350;0.577350;0.577350
-26.918695450;22.071989059;16.330699921;134;133;165;1;-0.577350;0.577350;0.577350
-38.828346252;17.999330521;9.067644119;236;237;231;1;-0.577350;0.577350;0.577350
-33.259021759;22.697383881;16.303606033;157;164;183;1;-0.577350;0.577350;0.577350
-34.159530640;20.226720810;14.114463806;76;79;130;1;-0.577350;0.577350;0.577350
-33.044754028;22.731515884;16.018733978;206;206;234;1;-0.577350;0.577350;0.577350
-25.864141464;21.139949799;15.835491180;138;154;167;1;-0.577350;0.577350;0.577350
-32.834003448;22.325853348;15.482082367;136;141;171;1;-0.577350;0.577350;0.577350
-29.738849640;16.820882797;17.764434814;248;250;249;1;-0.577350;0.577350;0.577350
-30.296569824;15.402029991;16.947542191;177;186;215;1;-0.577350;0.577350;0.577350
-29.610294342;15.333359718;14.231820107;82;88;122;1;-0.577350;0.577350;0.577350
-37.544551849;18.887292862;15.416295052;182;195;230;1;-0.577350;0.577350;0.577350
-35.574985504;19.445777893;8.269892693;206;211;241;1;-0.577350;0.577350;0.577350
-31.275064468;21.168977737;17.668876648;139;146;174;1;-0.577350;0.577350;0.577350
-30.166656494;15.198431969;17.312500000;203;218;211;1;-0.577350;0.577350;0.577350
-29.307792664;13.747117043;8.705034256;149;154;183;1;-0.577350;0.577350;0.577350
-33.154983521;21.145626068;14.865705490;67;62;68;1;-0.577350;0.577350;0.577350
-35.797676086;19.394691467;11.516565323;37;37;35;1;-0.577350;0.577350;0.577350
-26.947048187;17.091278076;14.863720894;195;203;224;1;-0.577350;0.577350;0.577350
-25.452463150;21.139175415;15.839568138;90;97;126;1;-0.577350;0.577350;0.577350
-31.413478851;21.391548157;12.218284607;122;115;131;1;-0.577350;0.577350;0.577350
-29.187980652;15.945848465;15.939586639;119;124;154;1;-0.577350;0.577350;0.577350
-27.883771896;20.374521255;17.569068909;77;77;105;1;-0.577350;0.577350;0.577350
-31.545858383;20.501951218;10.462050438;96;106;142;1;-0.577350;0.577350;0.577350
-32.031402588;21.355449677;9.473283768;232;240;255;1;-0.577350;0.577350;0.577350
-24.762004852;18.306194305;14.694727898;147;158;178;1;-0.577350;0.577350;0.577350
-32.830783844;19.738128662;17.740325928;218;221;238;1;-0.577350;0.577350;0.577350
-32.718250275;19.545886993;14.001286507;81;79;116;1;-0.577350;0.577350;0.577350
-32.962844849;19.446088791;9.880620003;114;106;119;1;-0.577350;0.577350;0.577350
-29.914424896;15.174702644;14.128385544;46;49;58;1;-0.577350;0.577350;0.577350
-32.842220306;20.146518707;13.365768433;87;97;106;1;-0.577350;0.577350;0.577350
-23.059560776;18.410896301;14.422208786;81;86;92;1;-0.577350;0.577350;0.577350
-36.036399841;18.016628265;14.612479210;122;118;145;1;-0.577350;0.577350;0.577350
-33.113452911;20.251188278;17.330717087;203;209;243;1;-0.577350;0.577350;0.577350
-28.378044128;20.204210281;16.394847870;125;119;153;1;-0.577350;0.577350;0.577350
-33.221881866;14.621875763;11.026597023;160;164;176;1;-0.577350;0.577350;0.577350
-31.623931885;22.761135101;12.608829498;123;127;162;1;-0.577350;0.577350;0.577350
-29.902065277;14.838877678;17.555006027;154;167;199;1;-0.577350;0.577350;0.577350
-27.187835693;17.904941559;9.483840942;58;48;75;1;-0.577350;0.577350;0.577350
-33.284130096;20.167869568;15.906799316;85;90;96;1;-0.577350;0.577350;0.577350
-30.054224014;23.145698547;10.381873131;116;98;114;1;-0.577350;0.577350;0.577350
-28.620731354;12.667794228;10.628911018;148;149;197;1;-0.577350;0.577350;0.577350
-27.367368698;21.217117310;9.130379677;84;86;109;1;-0.577350;0.577350;0.577350
-25.918552399;21.917018890;16.428230286;39;42;51;1;-0.577350;0.577350;0.577350
-29.559612274;14.723110199;9.763858795;104;109;129;1;-0.577350;0.577350;0.577350
-33.022808075;20.200054169;16.360935211;132;139;157;1;-0.577350;0.577350;0.577350
-22.881946564;17.589159012;13.596691132;85;88;107;1;-0.577350;0.577350;0.577350
-31.249851227;15.158792496;11.641345978;137;141;168;1;-0.577350;0.577350;0.577350
-25.531278610;21.454936981;15.439640045;106;116;125;1;-0.577350;0.577350;0.577350
-36.677719116;14.466647148;7.706335068;237;237;235;1;-0.577350;0.577350;0.577350
-29.686000824;19.977476120;18.312864304;183;196;215;1;-0.577350;0.577350;0.577350
-29.795272827;14.680487633;9.613289833;78;71;87;1;-0.577350;0.577350;0.577350
-28.729387283;19.139472961;15.538745880;146;152;168;1;-0.577350;0.577350;0.577350
-26.077924728;18.255687714;14.610617638;133;145;193;1;-0.577350;0.577350;0.577350
-31.521373749;24.672676086;13.957652092;61;62;80;1;-0.577350;0.577350;0.577350
-32.231281281;18.826726913;16.182344437;253;254;255;1;-0.577350;0.577350;0.577350
-27.542884827;21.146654129;9.164746284;142;153;173;1;-0.577350;0.577350;0.577350
-33.898628235;19.982021332;11.788123131;92;76;87;1;-0.577350;0.577350;0.577350
-32.397598267;19.861145020;12.465952873;27;25;62;1;-0.577350;0.577350;0.577350
-35.304943085;20.081455231;13.599953651;152;149;180;1;-0.577350;0.577350;0.577350
-30.011873245;22.007041931;15.631695747;217;229;251;1;-0.577350;0.577350;0.577350
-25.480298996;22.049013138;16.239078522;166;177;199;1;-0.577350;0.577350;0.577350
-34.446369171;19.356920242;12.312819481;84;86;124;1;-0.577350;0.577350;0.577350
-36.274410248;20.526512146;8.577328682;219;219;217;1;-0.577350;0.577350;0.577350
-32.337799072;22.687881470;12.480369568;173;178;200;1;-0.577350;0.577350;0.577350
-33.174270630;14.820508003;10.636124611;206;205;239;1;-0.577350;0.577350;0.577350
-29.487030029;19.957300186;14.635714531;206;216;241;1;-0.577350;0.577350;0.577350
-35.165336609;19.033811569;8.411046028;143;142;174;1;-0.577350;0.577350;0.577350
-23.948736191;17.661531448;15.160254478;59;61;74;1;-0.577350;0.577350;0.577350
-32.915992737;20.848703384;15.268332481;159;167;188;1;-0.577350;0.577350;0.577350
-30.171237946;15.983768463;10.749586105;66;62;63;1;-0.577350;0.577350;0.577350
-31.454225540;20.466350555;17.612289429;187;192;222;1;-0.577350;0.577350;0.577350
-34.120716095;21.329494476;16.136049271;111;131;182;1;-0.577350;0.577350;0.577350
-35.044769287;19.949226379;16.803308487;246;243;252;1;-0.577350;0.577350;0.577350
-31.130846024;23.213581085;9.599799156;53;39;74;1;-0.577350;0.577350;0.577350
-30.670541763;24.209733963;13.456128120;209;213;242;1;-0.577350;0.577350;0.577350
-29.405319214;22.344718933;8.318099976;62;60;71;1;-0.577350;0.577350;0.577350
-29.502336502;22.887573242;9.951964378;132;147;176;1;-0.577350;0.577350;0.577350
-29.814613342;20.355216980;17.559312820;231;251;250;1;-0.577350;0.577350;0.577350
-30.259033203;15.538868904;16.859291077;71;71;95;1;-0.577350;0.577350;0.577350
-25.472206116;22.404890060;15.198535919;234;243;250;1;-0.577350;0.577350;0.577350
-33.708648682;22.060909271;16.259298325;120;135;158;1;-0.577350;0.577350;0.577350
-31.824712753;23.572757721;9.104316711;228;237;244;1;-0.577350;0.577350;0.577350
-30.709526062;20.970073700;15.855979919;190;201;231;1;-0.577350;0.577350;0.577350
-30.120239258;15.414813042;15.876023293;54;52;63;1;-0.577350;0.577350;0.577350
-34.766864777;20.003036499;13.822587967;61;52;71;1;-0.577350;0.577350;0.577350
-28.501758575;17.906253815;11.530189514;135;139;187;1;-0.577350;0.577350;0.577350
-33.203441620;19.900562286;16.411092758;58;53;59;1;-0.577350;0.577350;0.577350
-27.925054550;18.865488052;17.965305328;120;135;156;1;-0.577350;0.577350;0.577350
-32.680534363;20.454141617;16.930383682;132;132;144;1;-0.577350;0.577350;0.577350
-32.605464935;19.538440704;11.460688591;84;80;97;1;-0.577350;0.577350;0.577350
-38.053733826;20.771856308;13.742889404;225;237;235;1;-0.577350;0.577350;0.577350
-25.836170197;22.595336914;16.047676086;217;226;225;1;-0.577350;0.577350;0.577350
-36.589138031;22.842586517;13.638222694;127;130;173;1;-0.577350;0.577350;0.577350
-33.668586731;22.730100632;17.005596161;76;75;115;1;-0.577350;0.577350;0.577350
-32.179389954;18.833730698;15.842573166;66;65;71;1;-0.577350;0.577350;0.577350
-29.425010681;14.141976357;9.803054810;84;81;90;1;-0.577350;0.577350;0.577350
-29.154499054;13.680859566;8.846357346;81;77;92;1;-0.577350;0.577350;0.577350
-29.207824707;13.771658897;8.733194351;92;85;103;1;-0.577350;0.577350;0.577350
-31.150953293;21.684963226;11.688961029;78;78;132;1;-0.577350;0.577350;0.577350
-22.652637482;17.372518539;13.939927101;48;52;61;1;-0.577350;0.577350;0.577350
-26.077033997;18.126724243;14.290393829;123;138;171;1;-0.577350;0.577350;0.577350
-27.120582581;16.650402069;10.559132576;155;160;215;1;-0.577350;0.577350;0.577350
-33.789047241;16.091453552;9.998440742;159;172;189;1;-0.577350;0.577350;0.577350
-33.002063751;20.250713348;17.319175720;151;147;197;1;-0.577350;0.577350;0.577350
-32.789352417;19.888231277;16.985242844;213;219;243;1;-0.577350;0.577350;0.577350
-29.677251816;20.693948746;14.746953011;144;151;179;1;-0.577350;0.577350;0.577350
-32.963737488;21.010848999;14.547545433;90;89;97;1;-0.577350;0.577350;0.577350
-34.897010803;19.997793198;9.658686638;87;59;45;1;-0.577350;0.577350;0.577350
-30.288822174;15.644433022;16.930830002;89;86;113;1;-0.577350;0.577350;0.577350
-30.258560181;15.592650414;16.621074677;105;107;130;1;-0.577350;0.577350;0.577350
-28.952268600;23.467758179;10.139460564;201;209;248;1;-0.577350;0.577350;0.577350
-31.818294525;22.197591782;12.698668480;107;110;151;1;-0.577350;0.577350;0.577350
-27.777282715;22.816907883;8.972297668;83;83;109;1;-0.577350;0.577350;0.577350
-33.387519836;20.621944427;16.471467972;64;66;78;1;-0.577350;0.577350;0.577350
-32.483871460;22.964643478;11.676254272;97;78;123;1;-0.577350;0.577350;0.577350
-29.582147598;15.757900238;16.417249680;104;115;147;1;-0.577350;0.577350;0.577350
-32.766319275;19.879344940;12.946579933;61;58;65;1;-0.577350;0.577350;0.577350
-28.774061203;13.068264961;9.029599190;105;99;133;1;-0.577350;0.577350;0.577350
-35.648189545;18.573444366;7.148874283;243;240;247;1;-0.577350;0.577350;0.577350
-32.422290802;19.309471130;12.190480232;91;82;125;1;-0.577350;0.577350;0.577350
-35.408969879;16.236221313;9.886813164;146;135;175;1;-0.577350;0.577350;0.577350
-28.849811554;15.036535263;9.586966515;155;167;193;1;-0.577350;0.577350;0.577350
-27.394012451;21.841373444;15.465387344;245;247;246;1;-0.577350;0.577350;0.577350
-33.165142059;22.927795410;15.860259056;83;88;117;1;-0.577350;0.577350;0.577350
-24.981727600;18.758487701;14.745303154;138;150;174;1;-0.577350;0.577350;0.577350
-36.760929108;18.630409241;11.683481216;98;91;142;1;-0.577350;0.577350;0.577350
-32.141052246;16.790149689;7.706459045;69;62;69;1;-0.577350;0.577350;0.577350
-32.745086670;20.775880814;14.598829269;56;50;62;1;-0.577350;0.577350;0.577350
-29.138416290;23.270545959;16.897775650;246;252;252;1;-0.577350;0.577350;0.577350
-33.655441284;23.614337921;13.071831703;62;62;96;1;-0.577350;0.577350;0.577350
-33.791889191;19.949663162;17.137247086;124;98;145;1;-0.577350;0.577350;0.577350
-36.425525665;17.924442291;11.800946236;131;94;137;1;-0.577350;0.577350;0.577350
-29.916301727;20.203462601;17.162725449;161;177;202;1;-0.577350;0.577350;0.577350
-28.936618805;16.045621872;15.958365440;121;119;143;1;-0.577350;0.577350;0.577350
-26.059247971;20.879526138;16.185213089;93;101;120;1;-0.577350;0.577350;0.577350
-27.341785431;15.918617249;11.663053513;150;153;206;1;-0.577350;0.577350;0.577350
-23.348588943;17.406724930;14.877314568;129;126;157;1;-0.577350;0.577350;0.577350
-26.853492737;17.667886734;15.116605759;195;210;231;1;-0.577350;0.577350;0.577350
-25.897281647;21.895429611;14.788648605;76;80;81;1;-0.577350;0.577350;0.577350
-31.885841370;20.951492310;17.253078461;243;250;255;1;-0.577350;0.577350;0.577350
-30.603744507;24.040466309;13.528847694;215;233;247;1;-0.577350;0.577350;0.577350
-27.754741669;18.992195129;17.253387451;177;183;207;1;-0.577350;0.577350;0.577350
-37.743278503;19.178752899;10.197157860;218;217;235;1;-0.577350;0.577350;0.577350
-33.351432800;21.712272644;16.302738190;187;200;234;1;-0.577350;0.577350;0.577350
-34.667625427;19.686414719;10.216539383;148;141;159;1;-0.577350;0.577350;0.577350
-30.342094421;15.812994957;9.470308304;101;91;100;1;-0.577350;0.577350;0.577350
-27.406446457;20.139524460;17.751882553;166;178;200;1;-0.577350;0.577350;0.577350
-31.201412201;23.324125290;7.995763302;101;108;162;1;-0.577350;0.577350;0.577350
-25.576929092;22.110567093;16.408157349;208;219;241;1;-0.577350;0.577350;0.577350
-29.596773148;22.931602478;7.709620476;54;44;52;1;-0.577350;0.577350;0.577350
-32.712570190;19.888378143;13.258956909;81;79;90;1;-0.577350;0.577350;0.577350
-31.958301544;25.308803558;15.155968666;237;239;238;1;-0.577350;0.577350;0.577350
-26.032142639;21.964056015;16.418844223;97;103;127;1;-0.577350;0.577350;0.577350
-29.454641342;13.347440720;7.766342163;126;132;154;1;-0.577350;0.577350;0.577350
-30.587667465;20.282545090;8.844658852;120;117;146;1;-0.577350;0.577350;0.577350
-32.840843201;20.128767014;16.044929504;245;244;255;1;-0.577350;0.577350;0.577350
-28.979274750;23.642450333;9.295711517;189;192;223;1;-0.577350;0.577350;0.577350
-32.697669983;19.900876999;18.131879807;232;231;227;1;-0.577350;0.577350;0.577350
-28.542844772;19.866207123;15.787550926;145;156;174;1;-0.577350;0.577350;0.577350
-29.321016312;16.259838104;15.868763924;83;78;72;1;-0.577350;0.577350;0.577350
-30.001510620;24.081035614;9.882329941;112;101;107;1;-0.577350;0.577350;0.577350
-31.654117584;22.958530426;12.513507843;152;146;182;1;-0.577350;0.577350;0.577350
-23.825887680;18.371616364;14.795258522;88;94;108;1;-0.577350;0.577350;0.577350
-30.529825211;16.196844101;16.821670532;169;172;213;1;-0.577350;0.577350;0.577350
-36.733867645;17.913425446;11.554794312;209;199;251;1;-0.577350;0.577350;0.577350
-27.573993683;19.533119202;13.763677597;189;201;227;1;-0.577350;0.577350;0.577350
